4.100613940771320465e-01 1.067186426991859172e+00 -1.907700603852487131e-01 8.723248417853220360e+01 7.049798173273894575e-01 -1.790923470566528408e+02
4.100608281950197109e-01 1.067346200683898960e+00 -1.940094796295342705e-01 8.723248417941620403e+01 7.049798164456274607e-01 -1.790923470566012838e+02
4.100602623128355995e-01 1.067505974376257605e+00 -1.972488988856128667e-01 8.723248417764975216e+01 7.049798164446678950e-01 -1.790923470566212075e+02
4.100596964306361669e-01 1.067665748068088227e+00 -2.004883181259431713e-01 8.723248417941792354e+01 7.049798164661664757e-01 -1.790923470566038702e+02
4.100591305484759808e-01 1.067825521760641161e+00 -2.037277373818907056e-01 8.723248417764817475e+01 7.049798182088978793e-01 -1.790923470567094853e+02
4.100585646661559225e-01 1.067985295452271721e+00 -2.069671566222696102e-01 8.723248417941620403e+01 7.049798164454992300e-01 -1.790923470566039271e+02
4.100579987839897966e-01 1.068145069145029824e+00 -2.102065758783226712e-01 8.723248417765097429e+01 7.049798164653940935e-01 -1.790923470566199569e+02
4.100574329017975805e-01 1.068304842836456547e+00 -2.134459951185867232e-01 8.723248417941620403e+01 7.049798164457015126e-01 -1.790923470565998059e+02
4.100568670200333554e-01 1.068464616528606692e+00 -2.166854143667608923e-01 8.723248417941513821e+01 7.049798182099794586e-01 -1.790923470566871174e+02
4.100563011378506872e-01 1.068624390220751730e+00 -2.199248336149681182e-01 8.723248417941513821e+01 7.049798182100445176e-01 -1.790923470566858100e+02
4.100441866637027366e-01 1.068823560943383155e+00 -2.199112592683090117e-01 8.723248417764925478e+01 7.049798164447568238e-01 -1.790923470566194169e+02
4.100447525458854603e-01 1.068663787251238340e+00 -2.166718400201030348e-01 8.723248417764925478e+01 7.049798164446918758e-01 -1.790923470566207527e+02
4.100453184285092201e-01 1.068504013558286170e+00 -2.134324207640251325e-01 8.723248417941513821e+01 7.049798182099937804e-01 -1.790923470566868616e+02
4.100458843103758633e-01 1.068344239866854783e+00 -2.101930015237865046e-01 8.723248417765097429e+01 7.049798164653940935e-01 -1.790923470566199569e+02
4.100464501925419891e-01 1.068184466174097125e+00 -2.069535822677395775e-01 8.723248417941620403e+01 7.049798164454992300e-01 -1.790923470566039271e+02
4.100470160747364257e-01 1.068024692482465676e+00 -2.037141630273851811e-01 8.723248417764975216e+01 7.049798164446073878e-01 -1.790923470566224580e+02
4.100475819569479041e-01 1.067864918789911188e+00 -2.004747437713818581e-01 8.723248417941685773e+01 7.049798182304555239e-01 -1.790923470566909259e+02
4.100481478392217216e-01 1.067705145098083008e+00 -1.972353245310789205e-01 8.723248417764925478e+01 7.049798164446675619e-01 -1.790923470566212075e+02
4.100487137214058331e-01 1.067545371405724808e+00 -1.939959052750042379e-01 8.723248417941620403e+01 7.049798164456311245e-01 -1.790923470566012838e+02
4.100492796035170029e-01 1.067385597713689460e+00 -1.907564860308116061e-01 8.723248417853305625e+01 7.049798173376972121e-01 -1.790923470566533240e+02
4.100371651299895004e-01 1.067584768435410725e+00 -1.907429116723639850e-01 8.723248417941708510e+01 7.049798164560507896e-01 -1.790923470565994933e+02
4.100365992477918442e-01 1.067744542127550433e+00 -1.939823309204742607e-01 8.723248417941620403e+01 7.049798164456314575e-01 -1.790923470566012838e+02
4.100360333656077882e-01 1.067904315819908412e+00 -1.972217501765427816e-01 8.723248417764925478e+01 7.049798164446635651e-01 -1.790923470566212075e+02
4.100354674833338597e-01 1.068064089511736814e+00 -2.004611694168521308e-01 8.723248417941685773e+01 7.049798182304592986e-01 -1.790923470566909259e+02
4.100349016011224368e-01 1.068223863204291080e+00 -2.037005886728512627e-01 8.723248417764924056e+01 7.049798164446050563e-01 -1.790923470566224580e+02
4.100343357189280558e-01 1.068383636895922972e+00 -2.069400079132095727e-01 8.723248417941620403e+01 7.049798164455012284e-01 -1.790923470566039271e+02
4.100337698369873607e-01 1.068543410588681963e+00 -2.101794271692168647e-01 8.723248417765039164e+01 7.049798182296850291e-01 -1.790923470567069842e+02
4.100332039544697382e-01 1.068703184280106466e+00 -2.134188464095279347e-01 8.723248417941620403e+01 7.049798164457015126e-01 -1.790923470565998059e+02
4.100326380722715269e-01 1.068862957973063521e+00 -2.166582656655668959e-01 8.723248417764925478e+01 7.049798164446914317e-01 -1.790923470566207527e+02
4.100320721900888588e-01 1.069022731665208337e+00 -2.198976849137728451e-01 8.723248417764925478e+01 7.049798164447566018e-01 -1.790923470566194169e+02
4.100199577164749254e-01 1.069221902387033518e+00 -2.198841105592344580e-01 8.723248417764975216e+01 7.049798164447568238e-01 -1.790923470566194169e+02
4.100205235986575936e-01 1.069062128694888480e+00 -2.166446913110284811e-01 8.723248417764975216e+01 7.049798164446918758e-01 -1.790923470566207243e+02
4.100210894808608009e-01 1.068902355001936311e+00 -2.134052720550897453e-01 8.723248417941792354e+01 7.049798164663162447e-01 -1.790923470566008007e+02
4.100216553630453564e-01 1.068742581310504480e+00 -2.101658528147234417e-01 8.723248417764925478e+01 7.049798164447770299e-01 -1.790923470566189621e+02
4.100222212454394666e-01 1.068582807617749042e+00 -2.069264335586486481e-01 8.723248417941513821e+01 7.049798182097940513e-01 -1.790923470566909543e+02
4.100227871275119451e-01 1.068423033925604226e+00 -2.036870143104734798e-01 8.723248417941620403e+01 7.049798164456017036e-01 -1.790923470566018239e+02
4.100233530096942802e-01 1.068263260233875966e+00 -2.004475950702057918e-01 8.723248417765097429e+01 7.049798164651680521e-01 -1.790923470566245044e+02
4.100239188918194388e-01 1.068103486541416736e+00 -1.972081758141244201e-01 8.723248417941513821e+01 7.049798182099570321e-01 -1.790923470566876290e+02
4.100244847741810750e-01 1.067943712849488858e+00 -1.939687565738054398e-01 8.723248417764925478e+01 7.049798164446350324e-01 -1.790923470566219180e+02
4.100250506563779540e-01 1.067783939157242790e+00 -1.907293373217670562e-01 8.723248417853359626e+01 7.049798164555505231e-01 -1.790923470566098104e+02
4.100129361825767260e-01 1.067983109879064418e+00 -1.907157629672177057e-01 8.723248417853329784e+01 7.049798173376990995e-01 -1.790923470566533240e+02
4.100123703002925279e-01 1.068142883571308044e+00 -1.939551822192366604e-01 8.723248417764868634e+01 7.049798182089279663e-01 -1.790923470567088884e+02
4.100118044182801125e-01 1.068302657263245026e+00 -1.971946014596263341e-01 8.723248417941620403e+01 7.049798164456604344e-01 -1.790923470566006017e+02
4.100112385360812350e-01 1.068462430955701592e+00 -2.004340207156776743e-01 8.723248417764924056e+01 7.049798164445550963e-01 -1.790923470566235380e+02
4.100106726538995106e-01 1.068622204647434071e+00 -2.036734399560353181e-01 8.723248417941792354e+01 7.049798164662166577e-01 -1.790923470566028470e+02
4.100101067718220360e-01 1.068781978340086702e+00 -2.069128592119542642e-01 8.723248417764817475e+01 7.049798182087970710e-01 -1.790923470567115316e+02
4.100095408894381399e-01 1.068941752031618009e+00 -2.101522784523616461e-01 8.723248417941620403e+01 7.049798164457738991e-01 -1.790923470565983564e+02
4.100089750072468675e-01 1.069101525723762158e+00 -2.133916977005597126e-01 8.723248417941792354e+01 7.049798164663159117e-01 -1.790923470566008007e+02
4.100084091254688756e-01 1.069261299416719435e+00 -2.166311169564637262e-01 8.723248417764817475e+01 7.049798182089843657e-01 -1.790923470567077800e+02
4.100078432432861519e-01 1.069421073108864251e+00 -2.198705362046708689e-01 8.723248417764817475e+01 7.049798182090494247e-01 -1.790923470567064442e+02
4.099957287696820996e-01 1.069620243829778605e+00 -2.198569618423254213e-01 8.723248417941513821e+01 7.049798182100465160e-01 -1.790923470566858100e+02
4.099962946518647677e-01 1.069460470137633790e+00 -2.166175425941182231e-01 8.723248417941513821e+01 7.049798182099812349e-01 -1.790923470566871174e+02
4.099968605336262173e-01 1.069300696446298771e+00 -2.133781233538490640e-01 8.723248417765097429e+01 7.049798164653194865e-01 -1.790923470566214348e+02
4.099974264158242621e-01 1.069140922753443634e+00 -2.101387040978316412e-01 8.723248417941620403e+01 7.049798164457737881e-01 -1.790923470565983564e+02
4.099979922979829494e-01 1.068981149061909663e+00 -2.068992848574499610e-01 8.723248417764924056e+01 7.049798164445042481e-01 -1.790923470566245328e+02
4.099985581803107237e-01 1.068821375369258808e+00 -2.036598656014750042e-01 8.723248417941685773e+01 7.049798182305097027e-01 -1.790923470566898743e+02
4.099991240624673572e-01 1.068661601677526773e+00 -2.004204463611392595e-01 8.723248417764975216e+01 7.049798164445533200e-01 -1.790923470566235096e+02
4.099996899446661791e-01 1.068501827985070873e+00 -1.971810271050963292e-01 8.723248417941620403e+01 7.049798164456643201e-01 -1.790923470566006017e+02
4.100002558268512343e-01 1.068342054293142329e+00 -1.939416078648261710e-01 8.723248417765097429e+01 7.049798164652499866e-01 -1.790923470566228843e+02
4.100008217089626816e-01 1.068182280600890044e+00 -1.907021886126858690e-01 8.723248417853305625e+01 7.049798173376972121e-01 -1.790923470566533240e+02
4.099887072354362338e-01 1.068381451322717668e+00 -1.906886142581690202e-01 8.723248417853359626e+01 7.049798164555526325e-01 -1.790923470566098104e+02
4.099881413532372454e-01 1.068541225014967733e+00 -1.939280335102900321e-01 8.723248417765097429e+01 7.049798164652499866e-01 -1.790923470566228843e+02
4.099875754710522457e-01 1.068700998706896277e+00 -1.971674527505662966e-01 8.723248417941620403e+01 7.049798164456603233e-01 -1.790923470566006017e+02
4.099870095887784283e-01 1.068860772399349512e+00 -2.004068720065753650e-01 8.723248417764817475e+01 7.049798182088480303e-01 -1.790923470567105369e+02
4.099864437065716682e-01 1.069020546091083768e+00 -2.036462912469765296e-01 8.723248417941792354e+01 7.049798164662168798e-01 -1.790923470566028470e+02
4.099858778243690161e-01 1.069180319783734845e+00 -2.068857105029116017e-01 8.723248417764975216e+01 7.049798164445046922e-01 -1.790923470566245328e+02
4.099853119422102732e-01 1.069340093475269482e+00 -2.101251297433016085e-01 8.723248417941620403e+01 7.049798164457738991e-01 -1.790923470565983564e+02
4.099847460603372462e-01 1.069499867168127727e+00 -2.133645489992826993e-01 8.723248417764989426e+01 7.049798182296118654e-01 -1.790923470567084621e+02
4.099841801777258099e-01 1.069659640859452310e+00 -2.166039682396199706e-01 8.723248417941620403e+01 7.049798164456885230e-01 -1.790923470566001185e+02
4.099836142955431417e-01 1.069819414551597125e+00 -2.198433874878260585e-01 8.723248417941620403e+01 7.049798164457536931e-01 -1.790923470565987827e+02
4.099714998219292084e-01 1.070018585273422751e+00 -2.198298131332960259e-01 8.723248417941620403e+01 7.049798164457534710e-01 -1.790923470565987827e+02
4.099720657041119320e-01 1.069858811581278157e+00 -2.165903938850899657e-01 8.723248417941620403e+01 7.049798164456880789e-01 -1.790923470566001185e+02
4.099726315862984305e-01 1.069699037889947579e+00 -2.133509746447757871e-01 8.723248417765147167e+01 7.049798164653198196e-01 -1.790923470566214348e+02
4.099731974688212155e-01 1.069539264197097106e+00 -2.101115553887417109e-01 8.723248417941513821e+01 7.049798182100666111e-01 -1.790923470566853837e+02
4.099737633507551382e-01 1.069379490505560248e+00 -2.068721361483776555e-01 8.723248417764924056e+01 7.049798164445042481e-01 -1.790923470566245328e+02
4.099743292329577349e-01 1.069219716812909615e+00 -2.036327168924464970e-01 8.723248417941792354e+01 7.049798164662166577e-01 -1.790923470566028470e+02
4.099748951151412912e-01 1.069059943120765022e+00 -2.003932976442484304e-01 8.723248417941620403e+01 7.049798164455496341e-01 -1.790923470566028755e+02
4.099754609972647845e-01 1.068900169428928626e+00 -1.971538784038383840e-01 8.723248417764817475e+01 7.049798182089604959e-01 -1.790923470567082347e+02
4.099760268796218132e-01 1.068740395736581750e+00 -1.939144591479220470e-01 8.723248417941792354e+01 7.049798164662461897e-01 -1.790923470566022502e+02
4.099765927618222450e-01 1.068580622044542849e+00 -1.906750399036359345e-01 8.723248417853359626e+01 7.049798164555506341e-01 -1.790923470566098104e+02
4.099644782880207394e-01 1.068779792766364700e+00 -1.906614655490871391e-01 8.723248417853329784e+01 7.049798173376993216e-01 -1.790923470566533240e+02
4.099639124057328221e-01 1.068939566458401824e+00 -1.939008847933627600e-01 8.723248417941685773e+01 7.049798182305391236e-01 -1.790923470566892775e+02
4.099633465237259577e-01 1.069099340150756694e+00 -1.971403040493330538e-01 8.723248417764925478e+01 7.049798164446656745e-01 -1.790923470566212075e+02
4.099627806415274134e-01 1.069259113842590647e+00 -2.003797232897184255e-01 8.723248417941620403e+01 7.049798164455496341e-01 -1.790923470566028755e+02
4.099622147593420252e-01 1.069418887535145579e+00 -2.036191425457322124e-01 8.723248417765097429e+01 7.049798164652200105e-01 -1.790923470566234244e+02
4.099616488772710454e-01 1.069578661226775917e+00 -2.068585617860059511e-01 8.723248417941513821e+01 7.049798182097940513e-01 -1.790923470566909543e+02
4.099610829948824309e-01 1.069738434918918957e+00 -2.100979810342428200e-01 8.723248417941620403e+01 7.049798164457742322e-01 -1.790923470565983564e+02
4.099605171126806669e-01 1.069898208611773427e+00 -2.133374002902476141e-01 8.723248417764975216e+01 7.049798164447065307e-01 -1.790923470566204116e+02
4.099599512305041049e-01 1.070057982303108002e+00 -2.165768195306540522e-01 8.723248417941744037e+01 7.049798164663008126e-01 -1.790923470566011417e+02
4.099593853483213812e-01 1.070217755995247932e+00 -2.198162387787602756e-01 8.723248417941744037e+01 7.049798164663658717e-01 -1.790923470565998059e+02
4.099472708751237815e-01 1.070416926717888240e+00 -2.198026644319872602e-01 8.723248417765039164e+01 7.049798182296629356e-01 -1.790923470567074105e+02
4.099478367573064497e-01 1.070257153025748087e+00 -2.165632451838799821e-01 8.723248417765039164e+01 7.049798182295977655e-01 -1.790923470567087463e+02
4.099484026390750602e-01 1.070097379332789478e+00 -2.133238259279237048e-01 8.723248417941620403e+01 7.049798164457034000e-01 -1.790923470565998059e+02
4.099489685212634460e-01 1.069937605641354317e+00 -2.100844066875125205e-01 8.723248417764925478e+01 7.049798164447772519e-01 -1.790923470566189621e+02
4.099495344034349564e-01 1.069777831948603763e+00 -2.068449874315986259e-01 8.723248417941792354e+01 7.049798164661157385e-01 -1.790923470566049218e+02
4.099501002857525167e-01 1.069618058256970095e+00 -2.036055681911748128e-01 8.723248417764817475e+01 7.049798182088978793e-01 -1.790923470567094853e+02
4.099506661679134800e-01 1.069458284564416273e+00 -2.003661489351883929e-01 8.723248417941620403e+01 7.049798164455496341e-01 -1.790923470566028755e+02
4.099512320501111362e-01 1.069298510872586316e+00 -1.971267296948865655e-01 8.723248417765147167e+01 7.049798164652830712e-01 -1.790923470566222306e+02
4.099517979321219419e-01 1.069138737180227450e+00 -1.938873104388432467e-01 8.723248417941465505e+01 7.049798182099201727e-01 -1.790923470566883111e+02
4.099523638144089710e-01 1.068978963488190104e+00 -1.906478911945592991e-01 8.723248417853220360e+01 7.049798173273894575e-01 -1.790923470566528408e+02
4.099402493407949821e-01 1.069178134210015507e+00 -1.906343168400263244e-01 8.723248417853220360e+01 7.049798173273917890e-01 -1.790923470566528408e+02
4.099396834586833127e-01 1.069337907902057294e+00 -1.938737360843412472e-01 8.723248417941620403e+01 7.049798164456311245e-01 -1.790923470566012838e+02
4.099391175764972028e-01 1.069497681594411720e+00 -1.971131553403503989e-01 8.723248417765147167e+01 7.049798164652810728e-01 -1.790923470566222306e+02
4.099385516942241625e-01 1.069657455286239678e+00 -2.003525745806317149e-01 8.723248417941465505e+01 7.049798182098424570e-01 -1.790923470566899312e+02
4.099379858120139608e-01 1.069817228978794610e+00 -2.035919938366668736e-01 8.723248417764975216e+01 7.049798164446073878e-01 -1.790923470566224580e+02
4.099374199298210231e-01 1.069977002670429611e+00 -2.068314130770686210e-01 8.723248417941792354e+01 7.049798164661137401e-01 -1.790923470566049218e+02
4.099368540476495126e-01 1.070136776363179720e+00 -2.100708323329763538e-01 8.723248417764925478e+01 7.049798164447772519e-01 -1.790923470566189621e+02
4.099362881657856450e-01 1.070296550054619100e+00 -2.133102515733645566e-01 8.723248417941513821e+01 7.049798182099957788e-01 -1.790923470566868616e+02
4.099357222831679359e-01 1.070456323747566607e+00 -2.165496708293767614e-01 8.723248417765097429e+01 7.049798164653048316e-01 -1.790923470566217190e+02
4.099351564009852678e-01 1.070616097439706538e+00 -2.197890900774828460e-01 8.723248417765097429e+01 7.049798164653696686e-01 -1.790923470566204116e+02
4.099230419273712789e-01 1.070815268161531497e+00 -2.197755157229466794e-01 8.723248417765097429e+01 7.049798164653696686e-01 -1.790923470566204116e+02
4.099236078095539471e-01 1.070655494469391567e+00 -2.165360964748405947e-01 8.723248417765097429e+01 7.049798164653048316e-01 -1.790923470566217190e+02
4.099241736917472179e-01 1.070495720776439175e+00 -2.132966772188649163e-01 8.723248417941620403e+01 7.049798164457030669e-01 -1.790923470565998059e+02
4.099247395742600109e-01 1.070335947085006900e+00 -2.100572579784091842e-01 8.723248417764868634e+01 7.049798182090702969e-01 -1.790923470567059610e+02
4.099253054562071452e-01 1.070176173392255459e+00 -2.068178387225408366e-01 8.723248417941744037e+01 7.049798164661135180e-01 -1.790923470566049218e+02
4.099258713384000274e-01 1.070016399700620013e+00 -2.035784194821307347e-01 8.723248417764975216e+01 7.049798164446073878e-01 -1.790923470566224580e+02
4.099264372206101181e-01 1.069856626008065081e+00 -2.003390002260997671e-01 8.723248417941513821e+01 7.049798182098425681e-01 -1.790923470566899027e+02
4.099270031028833805e-01 1.069696852315927815e+00 -1.970995809780141661e-01 8.723248417941792354e+01 7.049798164662773869e-01 -1.790923470566015965e+02
4.099275689850725990e-01 1.069537078623992610e+00 -1.938601617376232988e-01 8.723248417764925478e+01 7.049798164446329229e-01 -1.790923470566219180e+02
4.099281348672703662e-01 1.069377304931743211e+00 -1.906207424855136390e-01 8.723248417853272940e+01 7.049798164452442117e-01 -1.790923470566092703e+02
4.099160203936564884e-01 1.069576475653568837e+00 -1.906071681309805532e-01 8.723248417853272940e+01 7.049798164452449889e-01 -1.790923470566092703e+02
4.099154545114586101e-01 1.069736249345817791e+00 -1.938465873830871322e-01 8.723248417764925478e+01 7.049798164446350324e-01 -1.790923470566219180e+02
4.099148886290938099e-01 1.069896023037749222e+00 -1.970860066234558783e-01 8.723248417941685773e+01 7.049798182305699878e-01 -1.790923470566886238e+02
4.099143227469715933e-01 1.070055796730200681e+00 -2.003254258793956133e-01 8.723248417764924056e+01 7.049798164445532089e-01 -1.790923470566235380e+02
4.099137568647894803e-01 1.070215570421936713e+00 -2.035648451198104891e-01 8.723248417941620403e+01 7.049798164456037020e-01 -1.790923470566018239e+02
4.099131909825932119e-01 1.070375344114080640e+00 -2.068042643680086112e-01 8.723248417941792354e+01 7.049798164661137401e-01 -1.790923470566049218e+02
4.099126251006459110e-01 1.070535117806832304e+00 -2.100436836238732674e-01 8.723248417764868634e+01 7.049798182090700749e-01 -1.790923470567059610e+02
4.099120592181333400e-01 1.070694891498265022e+00 -2.132831028643371041e-01 8.723248417941572086e+01 7.049798164457029559e-01 -1.790923470565998343e+02
4.099114933359351287e-01 1.070854665191217414e+00 -2.165225221203101735e-01 8.723248417764975216e+01 7.049798164446900994e-01 -1.790923470566207243e+02
4.099109274537524050e-01 1.071014438883362452e+00 -2.197619413685161505e-01 8.723248417764975216e+01 7.049798164447552695e-01 -1.790923470566194169e+02
4.098988129801484082e-01 1.071213609604280137e+00 -2.197483670062218564e-01 8.723248417941620403e+01 7.049798164457516947e-01 -1.790923470565987827e+02
4.098993788623311874e-01 1.071053835912135321e+00 -2.165089477580157684e-01 8.723248417941620403e+01 7.049798164456865246e-01 -1.790923470566001185e+02
4.098999447445126898e-01 1.070894062220798082e+00 -2.132695285175728594e-01 8.723248417764975216e+01 7.049798164447065307e-01 -1.790923470566204116e+02
4.099005106267181731e-01 1.070734288527950273e+00 -2.100301092616907173e-01 8.723248417941792354e+01 7.049798164663887423e-01 -1.790923470565993512e+02
4.099010765090986275e-01 1.070574514836415858e+00 -2.067906900212383992e-01 8.723248417764817475e+01 7.049798182087950726e-01 -1.790923470567115316e+02
4.099016423911756024e-01 1.070414741143762560e+00 -2.035512707652804565e-01 8.723248417941620403e+01 7.049798164456037020e-01 -1.790923470566018239e+02
4.099022082733577155e-01 1.070254967452025863e+00 -2.003118515248594744e-01 8.723248417764924056e+01 7.049798164445532089e-01 -1.790923470566235380e+02
4.099027741555555382e-01 1.070095193759577512e+00 -1.970724322689553776e-01 8.723248417941792354e+01 7.049798164662771649e-01 -1.790923470566015965e+02
4.099033400375689529e-01 1.069935420067637200e+00 -1.938330130285208230e-01 8.723248417764868634e+01 7.049798182089261900e-01 -1.790923470567088884e+02
4.099039059198546497e-01 1.069775646375390687e+00 -1.905935937764335342e-01 8.723248417853220360e+01 7.049798173273907897e-01 -1.790923470566528408e+02
4.098917914462396617e-01 1.069974817097220754e+00 -1.905800194219953725e-01 8.723248417853329784e+01 7.049798173376993216e-01 -1.790923470566533240e+02
4.098912255641308233e-01 1.070134590789466822e+00 -1.938194386740137998e-01 8.723248417764975216e+01 7.049798164446351434e-01 -1.790923470566219180e+02
4.098906596819437143e-01 1.070294364481403582e+00 -1.970588579144355312e-01 8.723248417941572086e+01 7.049798164456619887e-01 -1.790923470566006301e+02
4.098900937997440597e-01 1.070454138173855485e+00 -2.002982771704130138e-01 8.723248417765147167e+01 7.049798164651682741e-01 -1.790923470566245044e+02
4.098895279175857609e-01 1.070613911865587076e+00 -2.035376964107225850e-01 8.723248417941513821e+01 7.049798182098969690e-01 -1.790923470566888511e+02
4.098889620352605401e-01 1.070773685558238819e+00 -2.067771156667316534e-01 8.723248417764924056e+01 7.049798164445022497e-01 -1.790923470566245328e+02
4.098883961531042952e-01 1.070933459249775677e+00 -2.100165349071607124e-01 8.723248417941792354e+01 7.049798164663884092e-01 -1.790923470565993512e+02
4.098878302708988119e-01 1.071093232942623708e+00 -2.132559541630388855e-01 8.723248417764925478e+01 7.049798164447068638e-01 -1.790923470566204116e+02
4.098872643891412482e-01 1.071253006633966498e+00 -2.164953734034576471e-01 8.723248417941513821e+01 7.049798182099790145e-01 -1.790923470566871174e+02
4.098866985069585245e-01 1.071412780326111536e+00 -2.197347926516649008e-01 8.723248417941513821e+01 7.049798182100441846e-01 -1.790923470566858100e+02
4.098745840328205658e-01 1.071611951047930056e+00 -2.197212182971630678e-01 8.723248417941620403e+01 7.049798164457514726e-01 -1.790923470565987827e+02
4.098751499150032895e-01 1.071452177355785018e+00 -2.164817990489569799e-01 8.723248417941620403e+01 7.049798164456861915e-01 -1.790923470566001185e+02
4.098757157976087862e-01 1.071292403664452886e+00 -2.132423798084749633e-01 8.723248417764817475e+01 7.049798182089973553e-01 -1.790923470567074389e+02
4.098762816794903063e-01 1.071132629971601524e+00 -2.100029605526307075e-01 8.723248417941792354e+01 7.049798164663907407e-01 -1.790923470565993512e+02
4.098768475616466067e-01 1.070972856280063779e+00 -2.067635413121932941e-01 8.723248417764975216e+01 7.049798164445026938e-01 -1.790923470566245328e+02
4.098774134438477601e-01 1.070813082587412257e+00 -2.035241220562238607e-01 8.723248417941572086e+01 7.049798164456031468e-01 -1.790923470566018239e+02
4.098779793260541870e-01 1.070653308895678002e+00 -2.002847028158493414e-01 8.723248417765039164e+01 7.049798182294607640e-01 -1.790923470567115316e+02
4.098785452083297254e-01 1.070493535203229207e+00 -1.970452835599033059e-01 8.723248417941620403e+01 7.049798164456625438e-01 -1.790923470566006017e+02
4.098791110905153912e-01 1.070333761511084170e+00 -1.938058643116972457e-01 8.723248417941620403e+01 7.049798164456311245e-01 -1.790923470566012838e+02
4.098796769727136580e-01 1.070173987819048378e+00 -1.905664450674784127e-01 8.723248417853359626e+01 7.049798164555515223e-01 -1.790923470566098104e+02
4.098675624990997246e-01 1.070373158540873781e+00 -1.905528707129453270e-01 8.723248417853359626e+01 7.049798164555506341e-01 -1.790923470566098104e+02
4.098669966169014023e-01 1.070532932232910017e+00 -1.937922899571672131e-01 8.723248417941620403e+01 7.049798164456314575e-01 -1.790923470566012838e+02
4.098664307345412650e-01 1.070692705925257782e+00 -1.970317092131224912e-01 8.723248417764817475e+01 7.049798182089584975e-01 -1.790923470567082347e+02
4.098658648524179937e-01 1.070852479617097508e+00 -2.002711284535775016e-01 8.723248417941792354e+01 7.049798164661645883e-01 -1.790923470566038702e+02
4.098652989702321059e-01 1.071012253309644668e+00 -2.035105477094559523e-01 8.723248417764975216e+01 7.049798164446073878e-01 -1.790923470566224580e+02
4.098647330880377804e-01 1.071172027001282556e+00 -2.067499669499025527e-01 8.723248417941620403e+01 7.049798164454992300e-01 -1.790923470566039271e+02
4.098641672061001939e-01 1.071331800693429592e+00 -2.099893861980754728e-01 8.723248417941637456e+01 7.049798182306834526e-01 -1.790923470566863500e+02
4.098636013235709696e-01 1.071491574386272294e+00 -2.132288054539656086e-01 8.723248417764975216e+01 7.049798164447049764e-01 -1.790923470566204116e+02
4.098630354413894117e-01 1.071651348077610644e+00 -2.164682246944269750e-01 8.723248417941620403e+01 7.049798164456865246e-01 -1.790923470566001185e+02
4.098624695592066325e-01 1.071811121769755681e+00 -2.197076439426330352e-01 8.723248417941620403e+01 7.049798164457516947e-01 -1.790923470565987827e+02
4.098503550855926991e-01 1.072010292491581307e+00 -2.196940695881051953e-01 8.723248417941572086e+01 7.049798164457513616e-01 -1.790923470565988112e+02
4.098509209677754228e-01 1.071850518799436713e+00 -2.164546503398991351e-01 8.723248417941572086e+01 7.049798164456863026e-01 -1.790923470566001185e+02
4.098514868499703034e-01 1.071690745107295895e+00 -2.132152310917828364e-01 8.723248417941792354e+01 7.049798164663159117e-01 -1.790923470566008007e+02
4.098520527321548590e-01 1.071530971415857847e+00 -2.099758118513281591e-01 8.723248417764975216e+01 7.049798164447794724e-01 -1.790923470566189621e+02
4.098526186145475814e-01 1.071371197723108848e+00 -2.067363925953454307e-01 8.723248417941513821e+01 7.049798182097920529e-01 -1.790923470566909543e+02
4.098531844966181725e-01 1.071211424031469850e+00 -2.034969733549220061e-01 8.723248417764924056e+01 7.049798164446050563e-01 -1.790923470566224580e+02
4.098537503788040604e-01 1.071051650338923134e+00 -2.002575540990474967e-01 8.723248417941792354e+01 7.049798164661664757e-01 -1.790923470566038702e+02
4.098543162609272761e-01 1.070891876647083185e+00 -1.970181348585866021e-01 8.723248417764817475e+01 7.049798182089584975e-01 -1.790923470567082347e+02
4.098548821432875244e-01 1.070732102954735643e+00 -1.937787156026371804e-01 8.723248417941620403e+01 7.049798164456311245e-01 -1.790923470566012838e+02
4.098554480254857912e-01 1.070572329262699185e+00 -1.905392963584122412e-01 8.723248417853359626e+01 7.049798164555515223e-01 -1.790923470566098104e+02
4.098433335516837306e-01 1.070771499984521036e+00 -1.905257220038647781e-01 8.723248417853329784e+01 7.049798173376972121e-01 -1.790923470566533240e+02
4.098427676693973121e-01 1.070931273676555495e+00 -1.937651412480805857e-01 8.723248417941513821e+01 7.049798182099223931e-01 -1.790923470566883111e+02
4.098422017873895040e-01 1.071091047368911031e+00 -1.970045605040785797e-01 8.723248417764925478e+01 7.049798164446655635e-01 -1.790923470566212075e+02
4.098416359051910152e-01 1.071250821060749203e+00 -2.002439797445254022e-01 8.723248417941620403e+01 7.049798164455515215e-01 -1.790923470566028755e+02
4.098410700230293302e-01 1.071410594753299028e+00 -2.034833990004510373e-01 8.723248417764989426e+01 7.049798182295125004e-01 -1.790923470567104516e+02
4.098405041407099936e-01 1.071570368444932253e+00 -2.067228182408437365e-01 8.723248417941620403e+01 7.049798164454992300e-01 -1.790923470566039271e+02
4.098399382585408701e-01 1.071730142137683028e+00 -2.099622374967919924e-01 8.723248417764975216e+01 7.049798164447794724e-01 -1.790923470566189621e+02
4.098393723763563146e-01 1.071889915829121742e+00 -2.132016567372549964e-01 8.723248417941744037e+01 7.049798164663160227e-01 -1.790923470566008007e+02
4.098388064945767684e-01 1.072049689522073024e+00 -2.164410759930722183e-01 8.723248417764868634e+01 7.049798182089827003e-01 -1.790923470567077800e+02
4.098382406123940447e-01 1.072209463214218061e+00 -2.196804952412793610e-01 8.723248417764868634e+01 7.049798182090478704e-01 -1.790923470567064442e+02
4.098261261383565057e-01 1.072408633936037692e+00 -2.196669208867690903e-01 8.723248417764975216e+01 7.049798164447548254e-01 -1.790923470566194169e+02
4.098266920205393404e-01 1.072248860243892654e+00 -2.164275016385630857e-01 8.723248417764975216e+01 7.049798164446897664e-01 -1.790923470566207243e+02
4.098272579027424367e-01 1.072089086550947368e+00 -2.131880823827228266e-01 8.723248417941792354e+01 7.049798164663162447e-01 -1.790923470566008007e+02
4.098278237849269923e-01 1.071929312859508654e+00 -2.099486631422580185e-01 8.723248417764925478e+01 7.049798164447790283e-01 -1.790923470566189621e+02
4.098283896673195481e-01 1.071769539166760321e+00 -2.067092438862859483e-01 8.723248417941513821e+01 7.049798182097920529e-01 -1.790923470566909543e+02
4.098289555493917491e-01 1.071609765475124876e+00 -2.034698246459416549e-01 8.723248417765097429e+01 7.049798164652200105e-01 -1.790923470566234244e+02
4.098295214315771373e-01 1.071449991782574829e+00 -2.002304053899953695e-01 8.723248417941620403e+01 7.049798164455515215e-01 -1.790923470566028755e+02
4.098300873136991318e-01 1.071290218090733548e+00 -1.969909861495126036e-01 8.723248417764868634e+01 7.049798182089588305e-01 -1.790923470567082347e+02
4.098306531960576038e-01 1.071130444398391557e+00 -1.937515668936691249e-01 8.723248417941792354e+01 7.049798164662445243e-01 -1.790923470566022502e+02
4.098312190782571474e-01 1.070970670706247407e+00 -1.905121476454680884e-01 8.723248417941682931e+01 7.049798164560497904e-01 -1.790923470565994933e+02
4.127070928118709570e-01 1.071208605707880679e+00 -1.904997226729603366e-01 8.723248417853329784e+01 7.049798173376183863e-01 -1.790923470566549440e+02
4.127065269295982497e-01 1.071368379400123860e+00 -1.937391419249793467e-01 8.723248417765039164e+01 7.049798182296216353e-01 -1.790923470567082916e+02
4.127059610475877771e-01 1.071528153092067059e+00 -1.969785611654629454e-01 8.723248417941572086e+01 7.049798164457232730e-01 -1.790923470565994364e+02
4.127053951653937292e-01 1.071687926784516964e+00 -2.002179804214117564e-01 8.723248417764975216e+01 7.049798164446660076e-01 -1.790923470566212643e+02
4.127048292832274923e-01 1.071847700476250997e+00 -2.034573996617625724e-01 8.723248417941513821e+01 7.049798182099139554e-01 -1.790923470566883395e+02
4.127042634009148725e-01 1.072007474168904295e+00 -2.066968189178134130e-01 8.723248417765097429e+01 7.049798164652631982e-01 -1.790923470566226285e+02
4.127036975187776680e-01 1.072167247860440931e+00 -2.099362381581960091e-01 8.723248417941623245e+01 7.049798164461938965e-01 -1.790923470565898299e+02
4.127031316365617486e-01 1.072327021552584858e+00 -2.131756574064020970e-01 8.723248417941623245e+01 7.049798164458864758e-01 -1.790923470565961111e+02
4.127025657547848669e-01 1.072486795245534807e+00 -2.164150766622063848e-01 8.723248417764990847e+01 7.049798182297026816e-01 -1.790923470567066431e+02
4.127019998725971472e-01 1.072646568937674516e+00 -2.196544959103136629e-01 8.723248417764990847e+01 7.049798182297118965e-01 -1.790923470567064726e+02
4.098140116646426523e-01 1.072607804657861319e+00 -2.196533465322363377e-01 8.723248417764925478e+01 7.049798164447546034e-01 -1.790923470566194169e+02
4.098145775468253760e-01 1.072448030965716503e+00 -2.164139272840303607e-01 8.723248417764925478e+01 7.049798164446895443e-01 -1.790923470566207527e+02
4.098151434294518558e-01 1.072288257272776990e+00 -2.131745080281663707e-01 8.723248417941685773e+01 7.049798182306087346e-01 -1.790923470566878279e+02
4.098157093113130589e-01 1.072128483581333835e+00 -2.099350887877218796e-01 8.723248417764925478e+01 7.049798164447791393e-01 -1.790923470566189621e+02
4.098162751934821268e-01 1.071968709888583504e+00 -2.066956695317836989e-01 8.723248417941620403e+01 7.049798164454992300e-01 -1.790923470566039271e+02
4.098168410756812263e-01 1.071808936196443574e+00 -2.034562502836695930e-01 8.723248417941792354e+01 7.049798164662166577e-01 -1.790923470566028470e+02
4.098174069578865431e-01 1.071649162504703323e+00 -2.002168310431838849e-01 8.723248417764868634e+01 7.049798182088481413e-01 -1.790923470567105369e+02
4.098179728401618038e-01 1.071489388812256083e+00 -1.969774117872614694e-01 8.723248417941572086e+01 7.049798164456620997e-01 -1.790923470566006301e+02
4.098185387223468590e-01 1.071329615120321321e+00 -1.937379925468948605e-01 8.723248417765147167e+01 7.049798164652480992e-01 -1.790923470566228843e+02
4.098191046045456809e-01 1.071169841428074365e+00 -1.904985732948179245e-01 8.723248417853385206e+01 7.049798164555518554e-01 -1.790923470566098104e+02
4.069311163969304701e-01 1.071131077148258948e+00 -1.904974239127687485e-01 8.723248417941655930e+01 7.049798173381530697e-01 -1.790923470566438596e+02
4.069305505146453839e-01 1.071290850840403541e+00 -1.937368431610028141e-01 8.723248417941685773e+01 7.049798182305291316e-01 -1.790923470566895048e+02
4.069299846326369652e-01 1.071450624532748863e+00 -1.969762624168057419e-01 8.723248417764924056e+01 7.049798164446221538e-01 -1.790923470566221454e+02
4.069294187504429172e-01 1.071610398224588145e+00 -2.002156816572651099e-01 8.723248417941620403e+01 7.049798164455561844e-01 -1.790923470566027902e+02
4.069288528682633577e-01 1.071770171917137748e+00 -2.034551009132038457e-01 8.723248417765147167e+01 7.049798164652916199e-01 -1.790923470566220033e+02
4.069282869861899354e-01 1.071929945608778301e+00 -2.066945201536470600e-01 8.723248417941465505e+01 7.049798182098450106e-01 -1.790923470566897606e+02
4.069277211037919950e-01 1.072089719301521082e+00 -2.099339394095191547e-01 8.723248417764975216e+01 7.049798164447760307e-01 -1.790923470566190190e+02
4.069271552216090493e-01 1.072249492992960462e+00 -2.131733586499935940e-01 8.723248417941792354e+01 7.049798164663325650e-01 -1.790923470566005165e+02
4.069265893394053979e-01 1.072409266685905527e+00 -2.164127779058286072e-01 8.723248417764925478e+01 7.049798164446997584e-01 -1.790923470566205538e+02
4.069260234572247836e-01 1.072569040378050342e+00 -2.196521971540346119e-01 8.723248417764925478e+01 7.049798164447893534e-01 -1.790923470566187632e+02
4.126949783382591885e-01 1.071407776429706304e+00 -1.904861483184329407e-01 8.723248417853220360e+01 7.049798173273069679e-01 -1.790923470566544609e+02
4.126944124561640059e-01 1.071567550121957924e+00 -1.937255675705705227e-01 8.723248417764925478e+01 7.049798164447141913e-01 -1.790923470566202695e+02
4.126938465739729556e-01 1.071727323813897348e+00 -1.969649868110216473e-01 8.723248417941792354e+01 7.049798164663382272e-01 -1.790923470566004028e+02
4.126932806917797958e-01 1.071887097506342368e+00 -2.002044060668756176e-01 8.723248417764975216e+01 7.049798164446660076e-01 -1.790923470566212643e+02
4.126927148096133924e-01 1.072046871198076845e+00 -2.034438253072350100e-01 8.723248417941465505e+01 7.049798182099216159e-01 -1.790923470566883395e+02
4.126921489273009946e-01 1.072206644890729477e+00 -2.066832445632750537e-01 8.723248417765147167e+01 7.049798164652635313e-01 -1.790923470566226001e+02
4.126915830451637346e-01 1.072366418582266778e+00 -2.099226638036659764e-01 8.723248417941623245e+01 7.049798164461857919e-01 -1.790923470565898299e+02
4.126910171632644508e-01 1.072526192275114809e+00 -2.131620830594783134e-01 8.723248417764818896e+01 7.049798182091830956e-01 -1.790923470567037157e+02
4.126904512806575109e-01 1.072685965966452937e+00 -2.164015023000753490e-01 8.723248417941792354e+01 7.049798164664069500e-01 -1.790923470565990101e+02
4.126898853984697357e-01 1.072845739658592645e+00 -2.196409215481815447e-01 8.723248417941795196e+01 7.049798164664160538e-01 -1.790923470565988112e+02
4.098018971910348252e-01 1.072806975379685834e+00 -2.196397721776922884e-01 8.723248417765097429e+01 7.049798164653716670e-01 -1.790923470566204116e+02
4.098024630732175488e-01 1.072647201687545904e+00 -2.164003529295862038e-01 8.723248417765097429e+01 7.049798164653067190e-01 -1.790923470566217190e+02
4.098030289554108196e-01 1.072487427994597509e+00 -2.131609336736718652e-01 8.723248417941620403e+01 7.049798164457015126e-01 -1.790923470565998059e+02
4.098035948379290527e-01 1.072327654302456912e+00 -2.099215144254384935e-01 8.723248417941513821e+01 7.049798182100684985e-01 -1.790923470566853837e+02
4.098041607198648628e-01 1.072167880610913837e+00 -2.066820951849823451e-01 8.723248417764975216e+01 7.049798164445026938e-01 -1.790923470566245328e+02
4.098047266020672930e-01 1.072008106918269199e+00 -2.034426759291417808e-01 8.723248417941744037e+01 7.049798164662164357e-01 -1.790923470566028470e+02
4.098052924842491840e-01 1.071848333226529615e+00 -2.002032566886750853e-01 8.723248417764975216e+01 7.049798164445553184e-01 -1.790923470566235096e+02
4.098058583663711785e-01 1.071688559534077489e+00 -1.969638374327034314e-01 8.723248417941513821e+01 7.049798182099551447e-01 -1.790923470566876290e+02
4.098064242487329811e-01 1.071528785842146503e+00 -1.937244181923609143e-01 8.723248417765097429e+01 7.049798164652479882e-01 -1.790923470566228843e+02
4.098069901309317475e-01 1.071369012149899547e+00 -1.904849989402859489e-01 8.723248417853359626e+01 7.049798164555515223e-01 -1.790923470566098104e+02
4.069190019233188682e-01 1.071330247870087016e+00 -1.904838495621165029e-01 8.723248417853305625e+01 7.049798173376569110e-01 -1.790923470566541766e+02
4.069184360412113621e-01 1.071490021562334194e+00 -1.937232688141614645e-01 8.723248417765097429e+01 7.049798164652394394e-01 -1.790923470566231117e+02
4.069178701590230873e-01 1.071649795254268955e+00 -1.969626880545290171e-01 8.723248417941620403e+01 7.049798164456151373e-01 -1.790923470566015396e+02
4.069173042768288728e-01 1.071809568946718638e+00 -2.002021073104733595e-01 8.723248417764975216e+01 7.049798164445596482e-01 -1.790923470566234244e+02
4.069167383946759586e-01 1.071969342638461997e+00 -2.034415265510043647e-01 8.723248417941637456e+01 7.049798182305808680e-01 -1.790923470566884532e+02
4.069161725123527917e-01 1.072129116330596821e+00 -2.066809457990534393e-01 8.723248417941620403e+01 7.049798164455602922e-01 -1.790923470566026765e+02
4.069156066301781172e-01 1.072288890023346264e+00 -2.099203650549829880e-01 8.723248417764975216e+01 7.049798164447684812e-01 -1.790923470566190190e+02
4.069150407479950604e-01 1.072448663714786088e+00 -2.131597842954635891e-01 8.723248417941792354e+01 7.049798164663323430e-01 -1.790923470566005165e+02
4.069144748662145705e-01 1.072608437407740922e+00 -2.163992035513551959e-01 8.723248417764817475e+01 7.049798182089925813e-01 -1.790923470567076095e+02
4.069139089840339563e-01 1.072768211099885738e+00 -2.196386227995623386e-01 8.723248417764817475e+01 7.049798182090821763e-01 -1.790923470567057905e+02
4.126828638647335734e-01 1.071606947151535927e+00 -1.904725739639584192e-01 8.723248417853272940e+01 7.049798164451602789e-01 -1.790923470566109472e+02
4.126822979825485183e-01 1.071766720843578380e+00 -1.937119932082944918e-01 8.723248417941620403e+01 7.049798164457028449e-01 -1.790923470565996354e+02
4.126817321003590222e-01 1.071926494535722973e+00 -1.969514124564916424e-01 8.723248417941792354e+01 7.049798164663382272e-01 -1.790923470566004028e+02
4.126811662180892015e-01 1.072086268228160666e+00 -2.001908317122270686e-01 8.723248417764817475e+01 7.049798182089586085e-01 -1.790923470567082916e+02
4.126806003358761132e-01 1.072246041919906023e+00 -2.034302509528189140e-01 8.723248417941620403e+01 7.049798164456291261e-01 -1.790923470566013123e+02
4.126800344536870058e-01 1.072405815612554436e+00 -2.066696702087388871e-01 8.723248417765147167e+01 7.049798164652635313e-01 -1.790923470566226001e+02
4.126794685717730116e-01 1.072565589304090405e+00 -2.099090894490234227e-01 8.723248417941465505e+01 7.049798182104867195e-01 -1.790923470566769140e+02
4.126789026892272449e-01 1.072725362996938658e+00 -2.131485087050562499e-01 8.723248417764975216e+01 7.049798164448900506e-01 -1.790923470566166884e+02
4.126783368070435221e-01 1.072885136688278340e+00 -2.163879279455453442e-01 8.723248417941792354e+01 7.049798164663991784e-01 -1.790923470565990101e+02
4.126777709248558024e-01 1.073044910380418271e+00 -2.196273471936515398e-01 8.723248417941795196e+01 7.049798164664080602e-01 -1.790923470565988112e+02
4.097897827174308283e-01 1.073006146100607294e+00 -2.196261978154511185e-01 8.723248417941792354e+01 7.049798164663684252e-01 -1.790923470565998059e+02
4.097903485996136075e-01 1.072846372408467364e+00 -2.163867785673449229e-01 8.723248417941792354e+01 7.049798164663034772e-01 -1.790923470566010849e+02
4.097909144817901694e-01 1.072686598717127016e+00 -2.131473593268545519e-01 8.723248417764975216e+01 7.049798164447045323e-01 -1.790923470566204116e+02
4.097914803639918779e-01 1.072526825024278985e+00 -2.099079400709379650e-01 8.723248417941572086e+01 7.049798164457756755e-01 -1.790923470565983564e+02
4.097920462463766622e-01 1.072367051332744348e+00 -2.066685208305124866e-01 8.723248417765039164e+01 7.049798182294103599e-01 -1.790923470567125548e+02
4.097926121284531376e-01 1.072207277640095269e+00 -2.034291015746174380e-01 8.723248417941620403e+01 7.049798164456019256e-01 -1.790923470566018239e+02
4.097931780106353061e-01 1.072047503948354796e+00 -2.001896823341411391e-01 8.723248417764924056e+01 7.049798164445550963e-01 -1.790923470566235380e+02
4.097937438928339615e-01 1.071887730255905780e+00 -1.969502630782004604e-01 8.723248417941620403e+01 7.049798164456624328e-01 -1.790923470566006017e+02
4.097943097748422692e-01 1.071727956563965911e+00 -1.937108438377992681e-01 8.723248417764989426e+01 7.049798182295404780e-01 -1.790923470567099116e+02
4.097948756571294093e-01 1.071568182871721397e+00 -1.904714245857401511e-01 8.723248417853305625e+01 7.049798173376981003e-01 -1.790923470566533240e+02
4.069068874497048793e-01 1.071529418591912641e+00 -1.904702752075835004e-01 8.723248417853305625e+01 7.049798173376548016e-01 -1.790923470566541766e+02
4.069063215675974288e-01 1.071689192284159375e+00 -1.937096944596252979e-01 8.723248417765097429e+01 7.049798164652396615e-01 -1.790923470566231117e+02
4.069057556854092095e-01 1.071848965976094803e+00 -1.969491136999990122e-01 8.723248417941620403e+01 7.049798164456151373e-01 -1.790923470566015396e+02
4.069051898031380565e-01 1.072008739668545818e+00 -2.001885329560027238e-01 8.723248417764817475e+01 7.049798182088520271e-01 -1.790923470567104232e+02
4.069046239209389015e-01 1.072168513360282516e+00 -2.034279521964103832e-01 8.723248417941792354e+01 7.049798164662883782e-01 -1.790923470566013975e+02
4.069040580387355277e-01 1.072328287052926710e+00 -2.066673714522456740e-01 8.723248417764975216e+01 7.049798164445638671e-01 -1.790923470566233107e+02
4.069034921565708451e-01 1.072488060744468008e+00 -2.099067906927365168e-01 8.723248417941572086e+01 7.049798164457721228e-01 -1.790923470565984132e+02
4.069029262747042019e-01 1.072647834436620151e+00 -2.131462099409966449e-01 8.723248417941685773e+01 7.049798182306254990e-01 -1.790923470566875437e+02
4.069023603920775001e-01 1.072807608129554113e+00 -2.163856291967553303e-01 8.723248417764975216e+01 7.049798164446918758e-01 -1.790923470566205538e+02
4.069017945098969413e-01 1.072967381821699151e+00 -2.196250484449613349e-01 8.723248417764975216e+01 7.049798164447816928e-01 -1.790923470566187632e+02
