4.100613940771320465e-01 1.076586426991859247e+00 -1.907700603852487131e-01 8.723248417853220360e+01 7.049798173273894575e-01 -1.790923470566528408e+02
4.100608281950197109e-01 1.076746200683899035e+00 -1.940094796295342705e-01 8.723248417941620403e+01 7.049798164456274607e-01 -1.790923470566012838e+02
4.100602623128355995e-01 1.076905974376257680e+00 -1.972488988856128667e-01 8.723248417764975216e+01 7.049798164446678950e-01 -1.790923470566212075e+02
4.100596964306361669e-01 1.077065748068088302e+00 -2.004883181259431713e-01 8.723248417941792354e+01 7.049798164661664757e-01 -1.790923470566038702e+02
4.100591305484759808e-01 1.077225521760641236e+00 -2.037277373818907056e-01 8.723248417764817475e+01 7.049798182088978793e-01 -1.790923470567094853e+02
4.100585646661559225e-01 1.077385295452271796e+00 -2.069671566222696102e-01 8.723248417941620403e+01 7.049798164454992300e-01 -1.790923470566039271e+02
4.100579987839897966e-01 1.077545069145029899e+00 -2.102065758783226712e-01 8.723248417765097429e+01 7.049798164653940935e-01 -1.790923470566199569e+02
4.100574329017975805e-01 1.077704842836456622e+00 -2.134459951185867232e-01 8.723248417941620403e+01 7.049798164457015126e-01 -1.790923470565998059e+02
4.100568670200333554e-01 1.077864616528606767e+00 -2.166854143667608923e-01 8.723248417941513821e+01 7.049798182099794586e-01 -1.790923470566871174e+02
4.100563011378506872e-01 1.078024390220751805e+00 -2.199248336149681182e-01 8.723248417941513821e+01 7.049798182100445176e-01 -1.790923470566858100e+02
4.100441866637027366e-01 1.078223560943383230e+00 -2.199112592683090117e-01 8.723248417764925478e+01 7.049798164447568238e-01 -1.790923470566194169e+02
4.100447525458854603e-01 1.078063787251238415e+00 -2.166718400201030348e-01 8.723248417764925478e+01 7.049798164446918758e-01 -1.790923470566207527e+02
4.100453184285092201e-01 1.077904013558286245e+00 -2.134324207640251325e-01 8.723248417941513821e+01 7.049798182099937804e-01 -1.790923470566868616e+02
4.100458843103758633e-01 1.077744239866854858e+00 -2.101930015237865046e-01 8.723248417765097429e+01 7.049798164653940935e-01 -1.790923470566199569e+02
4.100464501925419891e-01 1.077584466174097422e+00 -2.069535822677395775e-01 8.723248417941620403e+01 7.049798164454992300e-01 -1.790923470566039271e+02
4.100470160747364257e-01 1.077424692482465751e+00 -2.037141630273851811e-01 8.723248417764975216e+01 7.049798164446073878e-01 -1.790923470566224580e+02
4.100475819569479041e-01 1.077264918789911263e+00 -2.004747437713818581e-01 8.723248417941685773e+01 7.049798182304555239e-01 -1.790923470566909259e+02
4.100481478392217216e-01 1.077105145098083083e+00 -1.972353245310789205e-01 8.723248417764925478e+01 7.049798164446675619e-01 -1.790923470566212075e+02
4.100487137214058331e-01 1.076945371405724883e+00 -1.939959052750042379e-01 8.723248417941620403e+01 7.049798164456311245e-01 -1.790923470566012838e+02
4.100492796035170029e-01 1.076785597713689535e+00 -1.907564860308116061e-01 8.723248417853305625e+01 7.049798173376972121e-01 -1.790923470566533240e+02
4.100371651299895004e-01 1.076984768435410800e+00 -1.907429116723639850e-01 8.723248417941708510e+01 7.049798164560507896e-01 -1.790923470565994933e+02
4.100365992477918442e-01 1.077144542127550508e+00 -1.939823309204742607e-01 8.723248417941620403e+01 7.049798164456314575e-01 -1.790923470566012838e+02
4.100360333656077882e-01 1.077304315819908487e+00 -1.972217501765427816e-01 8.723248417764925478e+01 7.049798164446635651e-01 -1.790923470566212075e+02
4.100354674833338597e-01 1.077464089511736889e+00 -2.004611694168521308e-01 8.723248417941685773e+01 7.049798182304592986e-01 -1.790923470566909259e+02
4.100349016011224368e-01 1.077623863204291155e+00 -2.037005886728512627e-01 8.723248417764924056e+01 7.049798164446050563e-01 -1.790923470566224580e+02
4.100343357189280558e-01 1.077783636895923047e+00 -2.069400079132095727e-01 8.723248417941620403e+01 7.049798164455012284e-01 -1.790923470566039271e+02
4.100337698369873607e-01 1.077943410588682038e+00 -2.101794271692168647e-01 8.723248417765039164e+01 7.049798182296850291e-01 -1.790923470567069842e+02
4.100332039544697382e-01 1.078103184280106541e+00 -2.134188464095279347e-01 8.723248417941620403e+01 7.049798164457015126e-01 -1.790923470565998059e+02
4.100326380722715269e-01 1.078262957973063596e+00 -2.166582656655668959e-01 8.723248417764925478e+01 7.049798164446914317e-01 -1.790923470566207527e+02
4.100320721900888588e-01 1.078422731665208412e+00 -2.198976849137728451e-01 8.723248417764925478e+01 7.049798164447566018e-01 -1.790923470566194169e+02
4.100199577164749254e-01 1.078621902387033593e+00 -2.198841105592344580e-01 8.723248417764975216e+01 7.049798164447568238e-01 -1.790923470566194169e+02
4.100205235986575936e-01 1.078462128694888555e+00 -2.166446913110284811e-01 8.723248417764975216e+01 7.049798164446918758e-01 -1.790923470566207243e+02
4.100210894808608009e-01 1.078302355001936386e+00 -2.134052720550897453e-01 8.723248417941792354e+01 7.049798164663162447e-01 -1.790923470566008007e+02
4.100216553630453564e-01 1.078142581310504555e+00 -2.101658528147234417e-01 8.723248417764925478e+01 7.049798164447770299e-01 -1.790923470566189621e+02
4.100222212454394666e-01 1.077982807617749117e+00 -2.069264335586486481e-01 8.723248417941513821e+01 7.049798182097940513e-01 -1.790923470566909543e+02
4.100227871275119451e-01 1.077823033925604301e+00 -2.036870143104734798e-01 8.723248417941620403e+01 7.049798164456017036e-01 -1.790923470566018239e+02
4.100233530096942802e-01 1.077663260233876041e+00 -2.004475950702057918e-01 8.723248417765097429e+01 7.049798164651680521e-01 -1.790923470566245044e+02
4.100239188918194388e-01 1.077503486541416811e+00 -1.972081758141244201e-01 8.723248417941513821e+01 7.049798182099570321e-01 -1.790923470566876290e+02
4.100244847741810750e-01 1.077343712849488933e+00 -1.939687565738054398e-01 8.723248417764925478e+01 7.049798164446350324e-01 -1.790923470566219180e+02
4.100250506563779540e-01 1.077183939157242865e+00 -1.907293373217670562e-01 8.723248417853359626e+01 7.049798164555505231e-01 -1.790923470566098104e+02
4.100129361825767260e-01 1.077383109879064493e+00 -1.907157629672177057e-01 8.723248417853329784e+01 7.049798173376990995e-01 -1.790923470566533240e+02
4.100123703002925279e-01 1.077542883571308119e+00 -1.939551822192366604e-01 8.723248417764868634e+01 7.049798182089279663e-01 -1.790923470567088884e+02
4.100118044182801125e-01 1.077702657263245101e+00 -1.971946014596263341e-01 8.723248417941620403e+01 7.049798164456604344e-01 -1.790923470566006017e+02
4.100112385360812350e-01 1.077862430955701667e+00 -2.004340207156776743e-01 8.723248417764924056e+01 7.049798164445550963e-01 -1.790923470566235380e+02
4.100106726538995106e-01 1.078022204647434146e+00 -2.036734399560353181e-01 8.723248417941792354e+01 7.049798164662166577e-01 -1.790923470566028470e+02
4.100101067718220360e-01 1.078181978340086777e+00 -2.069128592119542642e-01 8.723248417764817475e+01 7.049798182087970710e-01 -1.790923470567115316e+02
4.100095408894381399e-01 1.078341752031618084e+00 -2.101522784523616461e-01 8.723248417941620403e+01 7.049798164457738991e-01 -1.790923470565983564e+02
4.100089750072468675e-01 1.078501525723762233e+00 -2.133916977005597126e-01 8.723248417941792354e+01 7.049798164663159117e-01 -1.790923470566008007e+02
4.100084091254688756e-01 1.078661299416719510e+00 -2.166311169564637262e-01 8.723248417764817475e+01 7.049798182089843657e-01 -1.790923470567077800e+02
4.100078432432861519e-01 1.078821073108864326e+00 -2.198705362046708689e-01 8.723248417764817475e+01 7.049798182090494247e-01 -1.790923470567064442e+02
4.099957287696820996e-01 1.079020243829778902e+00 -2.198569618423254213e-01 8.723248417941513821e+01 7.049798182100465160e-01 -1.790923470566858100e+02
4.099962946518647677e-01 1.078860470137633865e+00 -2.166175425941182231e-01 8.723248417941513821e+01 7.049798182099812349e-01 -1.790923470566871174e+02
4.099968605336262173e-01 1.078700696446298846e+00 -2.133781233538490640e-01 8.723248417765097429e+01 7.049798164653194865e-01 -1.790923470566214348e+02
4.099974264158242621e-01 1.078540922753443709e+00 -2.101387040978316412e-01 8.723248417941620403e+01 7.049798164457737881e-01 -1.790923470565983564e+02
4.099979922979829494e-01 1.078381149061909738e+00 -2.068992848574499610e-01 8.723248417764924056e+01 7.049798164445042481e-01 -1.790923470566245328e+02
4.099985581803107237e-01 1.078221375369258883e+00 -2.036598656014750042e-01 8.723248417941685773e+01 7.049798182305097027e-01 -1.790923470566898743e+02
4.099991240624673572e-01 1.078061601677526848e+00 -2.004204463611392595e-01 8.723248417764975216e+01 7.049798164445533200e-01 -1.790923470566235096e+02
4.099996899446661791e-01 1.077901827985070948e+00 -1.971810271050963292e-01 8.723248417941620403e+01 7.049798164456643201e-01 -1.790923470566006017e+02
4.100002558268512343e-01 1.077742054293142404e+00 -1.939416078648261710e-01 8.723248417765097429e+01 7.049798164652499866e-01 -1.790923470566228843e+02
4.100008217089626816e-01 1.077582280600890119e+00 -1.907021886126858690e-01 8.723248417853305625e+01 7.049798173376972121e-01 -1.790923470566533240e+02
4.099887072354362338e-01 1.077781451322717743e+00 -1.906886142581690202e-01 8.723248417853359626e+01 7.049798164555526325e-01 -1.790923470566098104e+02
4.099881413532372454e-01 1.077941225014967808e+00 -1.939280335102900321e-01 8.723248417765097429e+01 7.049798164652499866e-01 -1.790923470566228843e+02
4.099875754710522457e-01 1.078100998706896352e+00 -1.971674527505662966e-01 8.723248417941620403e+01 7.049798164456603233e-01 -1.790923470566006017e+02
4.099870095887784283e-01 1.078260772399349587e+00 -2.004068720065753650e-01 8.723248417764817475e+01 7.049798182088480303e-01 -1.790923470567105369e+02
4.099864437065716682e-01 1.078420546091083843e+00 -2.036462912469765296e-01 8.723248417941792354e+01 7.049798164662168798e-01 -1.790923470566028470e+02
4.099858778243690161e-01 1.078580319783734920e+00 -2.068857105029116017e-01 8.723248417764975216e+01 7.049798164445046922e-01 -1.790923470566245328e+02
4.099853119422102732e-01 1.078740093475269557e+00 -2.101251297433016085e-01 8.723248417941620403e+01 7.049798164457738991e-01 -1.790923470565983564e+02
4.099847460603372462e-01 1.078899867168127802e+00 -2.133645489992826993e-01 8.723248417764989426e+01 7.049798182296118654e-01 -1.790923470567084621e+02
4.099841801777258099e-01 1.079059640859452385e+00 -2.166039682396199706e-01 8.723248417941620403e+01 7.049798164456885230e-01 -1.790923470566001185e+02
4.099836142955431417e-01 1.079219414551597200e+00 -2.198433874878260585e-01 8.723248417941620403e+01 7.049798164457536931e-01 -1.790923470565987827e+02
4.099714998219292084e-01 1.079418585273422826e+00 -2.198298131332960259e-01 8.723248417941620403e+01 7.049798164457534710e-01 -1.790923470565987827e+02
4.099720657041119320e-01 1.079258811581278232e+00 -2.165903938850899657e-01 8.723248417941620403e+01 7.049798164456880789e-01 -1.790923470566001185e+02
4.099726315862984305e-01 1.079099037889947654e+00 -2.133509746447757871e-01 8.723248417765147167e+01 7.049798164653198196e-01 -1.790923470566214348e+02
4.099731974688212155e-01 1.078939264197097181e+00 -2.101115553887417109e-01 8.723248417941513821e+01 7.049798182100666111e-01 -1.790923470566853837e+02
4.099737633507551382e-01 1.078779490505560323e+00 -2.068721361483776555e-01 8.723248417764924056e+01 7.049798164445042481e-01 -1.790923470566245328e+02
4.099743292329577349e-01 1.078619716812909690e+00 -2.036327168924464970e-01 8.723248417941792354e+01 7.049798164662166577e-01 -1.790923470566028470e+02
4.099748951151412912e-01 1.078459943120765097e+00 -2.003932976442484304e-01 8.723248417941620403e+01 7.049798164455496341e-01 -1.790923470566028755e+02
4.099754609972647845e-01 1.078300169428928701e+00 -1.971538784038383840e-01 8.723248417764817475e+01 7.049798182089604959e-01 -1.790923470567082347e+02
4.099760268796218132e-01 1.078140395736581825e+00 -1.939144591479220470e-01 8.723248417941792354e+01 7.049798164662461897e-01 -1.790923470566022502e+02
4.099765927618222450e-01 1.077980622044542924e+00 -1.906750399036359345e-01 8.723248417853359626e+01 7.049798164555506341e-01 -1.790923470566098104e+02
4.099644782880207394e-01 1.078179792766364775e+00 -1.906614655490871391e-01 8.723248417853329784e+01 7.049798173376993216e-01 -1.790923470566533240e+02
4.099639124057328221e-01 1.078339566458401899e+00 -1.939008847933627600e-01 8.723248417941685773e+01 7.049798182305391236e-01 -1.790923470566892775e+02
4.099633465237259577e-01 1.078499340150756769e+00 -1.971403040493330538e-01 8.723248417764925478e+01 7.049798164446656745e-01 -1.790923470566212075e+02
4.099627806415274134e-01 1.078659113842590944e+00 -2.003797232897184255e-01 8.723248417941620403e+01 7.049798164455496341e-01 -1.790923470566028755e+02
4.099622147593420252e-01 1.078818887535145654e+00 -2.036191425457322124e-01 8.723248417765097429e+01 7.049798164652200105e-01 -1.790923470566234244e+02
4.099616488772710454e-01 1.078978661226775992e+00 -2.068585617860059511e-01 8.723248417941513821e+01 7.049798182097940513e-01 -1.790923470566909543e+02
4.099610829948824309e-01 1.079138434918919032e+00 -2.100979810342428200e-01 8.723248417941620403e+01 7.049798164457742322e-01 -1.790923470565983564e+02
4.099605171126806669e-01 1.079298208611773502e+00 -2.133374002902476141e-01 8.723248417764975216e+01 7.049798164447065307e-01 -1.790923470566204116e+02
4.099599512305041049e-01 1.079457982303108077e+00 -2.165768195306540522e-01 8.723248417941744037e+01 7.049798164663008126e-01 -1.790923470566011417e+02
4.099593853483213812e-01 1.079617755995248007e+00 -2.198162387787602756e-01 8.723248417941744037e+01 7.049798164663658717e-01 -1.790923470565998059e+02
4.099472708751237815e-01 1.079816926717888315e+00 -2.198026644319872602e-01 8.723248417765039164e+01 7.049798182296629356e-01 -1.790923470567074105e+02
4.099478367573064497e-01 1.079657153025748162e+00 -2.165632451838799821e-01 8.723248417765039164e+01 7.049798182295977655e-01 -1.790923470567087463e+02
4.099484026390750602e-01 1.079497379332789553e+00 -2.133238259279237048e-01 8.723248417941620403e+01 7.049798164457034000e-01 -1.790923470565998059e+02
4.099489685212634460e-01 1.079337605641354392e+00 -2.100844066875125205e-01 8.723248417764925478e+01 7.049798164447772519e-01 -1.790923470566189621e+02
4.099495344034349564e-01 1.079177831948603838e+00 -2.068449874315986259e-01 8.723248417941792354e+01 7.049798164661157385e-01 -1.790923470566049218e+02
4.099501002857525167e-01 1.079018058256970169e+00 -2.036055681911748128e-01 8.723248417764817475e+01 7.049798182088978793e-01 -1.790923470567094853e+02
4.099506661679134800e-01 1.078858284564416348e+00 -2.003661489351883929e-01 8.723248417941620403e+01 7.049798164455496341e-01 -1.790923470566028755e+02
4.099512320501111362e-01 1.078698510872586391e+00 -1.971267296948865655e-01 8.723248417765147167e+01 7.049798164652830712e-01 -1.790923470566222306e+02
4.099517979321219419e-01 1.078538737180227525e+00 -1.938873104388432467e-01 8.723248417941465505e+01 7.049798182099201727e-01 -1.790923470566883111e+02
4.099523638144089710e-01 1.078378963488190179e+00 -1.906478911945592991e-01 8.723248417853220360e+01 7.049798173273894575e-01 -1.790923470566528408e+02
4.099402493407949821e-01 1.078578134210015582e+00 -1.906343168400263244e-01 8.723248417853220360e+01 7.049798173273917890e-01 -1.790923470566528408e+02
4.099396834586833127e-01 1.078737907902057591e+00 -1.938737360843412472e-01 8.723248417941620403e+01 7.049798164456311245e-01 -1.790923470566012838e+02
4.099391175764972028e-01 1.078897681594411795e+00 -1.971131553403503989e-01 8.723248417765147167e+01 7.049798164652810728e-01 -1.790923470566222306e+02
4.099385516942241625e-01 1.079057455286239753e+00 -2.003525745806317149e-01 8.723248417941465505e+01 7.049798182098424570e-01 -1.790923470566899312e+02
4.099379858120139608e-01 1.079217228978794685e+00 -2.035919938366668736e-01 8.723248417764975216e+01 7.049798164446073878e-01 -1.790923470566224580e+02
4.099374199298210231e-01 1.079377002670429686e+00 -2.068314130770686210e-01 8.723248417941792354e+01 7.049798164661137401e-01 -1.790923470566049218e+02
4.099368540476495126e-01 1.079536776363179795e+00 -2.100708323329763538e-01 8.723248417764925478e+01 7.049798164447772519e-01 -1.790923470566189621e+02
4.099362881657856450e-01 1.079696550054619175e+00 -2.133102515733645566e-01 8.723248417941513821e+01 7.049798182099957788e-01 -1.790923470566868616e+02
4.099357222831679359e-01 1.079856323747566682e+00 -2.165496708293767614e-01 8.723248417765097429e+01 7.049798164653048316e-01 -1.790923470566217190e+02
4.099351564009852678e-01 1.080016097439706613e+00 -2.197890900774828460e-01 8.723248417765097429e+01 7.049798164653696686e-01 -1.790923470566204116e+02
4.099230419273712789e-01 1.080215268161531572e+00 -2.197755157229466794e-01 8.723248417765097429e+01 7.049798164653696686e-01 -1.790923470566204116e+02
4.099236078095539471e-01 1.080055494469391864e+00 -2.165360964748405947e-01 8.723248417765097429e+01 7.049798164653048316e-01 -1.790923470566217190e+02
4.099241736917472179e-01 1.079895720776439250e+00 -2.132966772188649163e-01 8.723248417941620403e+01 7.049798164457030669e-01 -1.790923470565998059e+02
4.099247395742600109e-01 1.079735947085006975e+00 -2.100572579784091842e-01 8.723248417764868634e+01 7.049798182090702969e-01 -1.790923470567059610e+02
4.099253054562071452e-01 1.079576173392255534e+00 -2.068178387225408366e-01 8.723248417941744037e+01 7.049798164661135180e-01 -1.790923470566049218e+02
4.099258713384000274e-01 1.079416399700620088e+00 -2.035784194821307347e-01 8.723248417764975216e+01 7.049798164446073878e-01 -1.790923470566224580e+02
4.099264372206101181e-01 1.079256626008065378e+00 -2.003390002260997671e-01 8.723248417941513821e+01 7.049798182098425681e-01 -1.790923470566899027e+02
4.099270031028833805e-01 1.079096852315927890e+00 -1.970995809780141661e-01 8.723248417941792354e+01 7.049798164662773869e-01 -1.790923470566015965e+02
4.099275689850725990e-01 1.078937078623992685e+00 -1.938601617376232988e-01 8.723248417764925478e+01 7.049798164446329229e-01 -1.790923470566219180e+02
4.099281348672703662e-01 1.078777304931743508e+00 -1.906207424855136390e-01 8.723248417853272940e+01 7.049798164452442117e-01 -1.790923470566092703e+02
4.099160203936564884e-01 1.078976475653568912e+00 -1.906071681309805532e-01 8.723248417853272940e+01 7.049798164452449889e-01 -1.790923470566092703e+02
4.099154545114586101e-01 1.079136249345818088e+00 -1.938465873830871322e-01 8.723248417764925478e+01 7.049798164446350324e-01 -1.790923470566219180e+02
4.099148886290938099e-01 1.079296023037749297e+00 -1.970860066234558783e-01 8.723248417941685773e+01 7.049798182305699878e-01 -1.790923470566886238e+02
4.099143227469715933e-01 1.079455796730200756e+00 -2.003254258793956133e-01 8.723248417764924056e+01 7.049798164445532089e-01 -1.790923470566235380e+02
4.099137568647894803e-01 1.079615570421936788e+00 -2.035648451198104891e-01 8.723248417941620403e+01 7.049798164456037020e-01 -1.790923470566018239e+02
4.099131909825932119e-01 1.079775344114080715e+00 -2.068042643680086112e-01 8.723248417941792354e+01 7.049798164661137401e-01 -1.790923470566049218e+02
4.099126251006459110e-01 1.079935117806832379e+00 -2.100436836238732674e-01 8.723248417764868634e+01 7.049798182090700749e-01 -1.790923470567059610e+02
4.099120592181333400e-01 1.080094891498265097e+00 -2.132831028643371041e-01 8.723248417941572086e+01 7.049798164457029559e-01 -1.790923470565998343e+02
4.099114933359351287e-01 1.080254665191217489e+00 -2.165225221203101735e-01 8.723248417764975216e+01 7.049798164446900994e-01 -1.790923470566207243e+02
4.099109274537524050e-01 1.080414438883362527e+00 -2.197619413685161505e-01 8.723248417764975216e+01 7.049798164447552695e-01 -1.790923470566194169e+02
4.098988129801484082e-01 1.080613609604280434e+00 -2.197483670062218564e-01 8.723248417941620403e+01 7.049798164457516947e-01 -1.790923470565987827e+02
4.098993788623311874e-01 1.080453835912135396e+00 -2.165089477580157684e-01 8.723248417941620403e+01 7.049798164456865246e-01 -1.790923470566001185e+02
4.098999447445126898e-01 1.080294062220798157e+00 -2.132695285175728594e-01 8.723248417764975216e+01 7.049798164447065307e-01 -1.790923470566204116e+02
4.099005106267181731e-01 1.080134288527950348e+00 -2.100301092616907173e-01 8.723248417941792354e+01 7.049798164663887423e-01 -1.790923470565993512e+02
4.099010765090986275e-01 1.079974514836415933e+00 -2.067906900212383992e-01 8.723248417764817475e+01 7.049798182087950726e-01 -1.790923470567115316e+02
4.099016423911756024e-01 1.079814741143762635e+00 -2.035512707652804565e-01 8.723248417941620403e+01 7.049798164456037020e-01 -1.790923470566018239e+02
4.099022082733577155e-01 1.079654967452025938e+00 -2.003118515248594744e-01 8.723248417764924056e+01 7.049798164445532089e-01 -1.790923470566235380e+02
4.099027741555555382e-01 1.079495193759577587e+00 -1.970724322689553776e-01 8.723248417941792354e+01 7.049798164662771649e-01 -1.790923470566015965e+02
4.099033400375689529e-01 1.079335420067637274e+00 -1.938330130285208230e-01 8.723248417764868634e+01 7.049798182089261900e-01 -1.790923470567088884e+02
4.099039059198546497e-01 1.079175646375390762e+00 -1.905935937764335342e-01 8.723248417853220360e+01 7.049798173273907897e-01 -1.790923470566528408e+02
4.098917914462396617e-01 1.079374817097220829e+00 -1.905800194219953725e-01 8.723248417853329784e+01 7.049798173376993216e-01 -1.790923470566533240e+02
4.098912255641308233e-01 1.079534590789466897e+00 -1.938194386740137998e-01 8.723248417764975216e+01 7.049798164446351434e-01 -1.790923470566219180e+02
4.098906596819437143e-01 1.079694364481403657e+00 -1.970588579144355312e-01 8.723248417941572086e+01 7.049798164456619887e-01 -1.790923470566006301e+02
4.098900937997440597e-01 1.079854138173855560e+00 -2.002982771704130138e-01 8.723248417765147167e+01 7.049798164651682741e-01 -1.790923470566245044e+02
4.098895279175857609e-01 1.080013911865587151e+00 -2.035376964107225850e-01 8.723248417941513821e+01 7.049798182098969690e-01 -1.790923470566888511e+02
4.098889620352605401e-01 1.080173685558238894e+00 -2.067771156667316534e-01 8.723248417764924056e+01 7.049798164445022497e-01 -1.790923470566245328e+02
4.098883961531042952e-01 1.080333459249775752e+00 -2.100165349071607124e-01 8.723248417941792354e+01 7.049798164663884092e-01 -1.790923470565993512e+02
4.098878302708988119e-01 1.080493232942623782e+00 -2.132559541630388855e-01 8.723248417764925478e+01 7.049798164447068638e-01 -1.790923470566204116e+02
4.098872643891412482e-01 1.080653006633966795e+00 -2.164953734034576471e-01 8.723248417941513821e+01 7.049798182099790145e-01 -1.790923470566871174e+02
4.098866985069585245e-01 1.080812780326111611e+00 -2.197347926516649008e-01 8.723248417941513821e+01 7.049798182100441846e-01 -1.790923470566858100e+02
4.098745840328205658e-01 1.081011951047930131e+00 -2.197212182971630678e-01 8.723248417941620403e+01 7.049798164457514726e-01 -1.790923470565987827e+02
4.098751499150032895e-01 1.080852177355785315e+00 -2.164817990489569799e-01 8.723248417941620403e+01 7.049798164456861915e-01 -1.790923470566001185e+02
4.098757157976087862e-01 1.080692403664452961e+00 -2.132423798084749633e-01 8.723248417764817475e+01 7.049798182089973553e-01 -1.790923470567074389e+02
4.098762816794903063e-01 1.080532629971601599e+00 -2.100029605526307075e-01 8.723248417941792354e+01 7.049798164663907407e-01 -1.790923470565993512e+02
4.098768475616466067e-01 1.080372856280063854e+00 -2.067635413121932941e-01 8.723248417764975216e+01 7.049798164445026938e-01 -1.790923470566245328e+02
4.098774134438477601e-01 1.080213082587412332e+00 -2.035241220562238607e-01 8.723248417941572086e+01 7.049798164456031468e-01 -1.790923470566018239e+02
4.098779793260541870e-01 1.080053308895678077e+00 -2.002847028158493414e-01 8.723248417765039164e+01 7.049798182294607640e-01 -1.790923470567115316e+02
4.098785452083297254e-01 1.079893535203229282e+00 -1.970452835599033059e-01 8.723248417941620403e+01 7.049798164456625438e-01 -1.790923470566006017e+02
4.098791110905153912e-01 1.079733761511084467e+00 -1.938058643116972457e-01 8.723248417941620403e+01 7.049798164456311245e-01 -1.790923470566012838e+02
4.098796769727136580e-01 1.079573987819048453e+00 -1.905664450674784127e-01 8.723248417853359626e+01 7.049798164555515223e-01 -1.790923470566098104e+02
4.098675624990997246e-01 1.079773158540873856e+00 -1.905528707129453270e-01 8.723248417853359626e+01 7.049798164555506341e-01 -1.790923470566098104e+02
4.098669966169014023e-01 1.079932932232910092e+00 -1.937922899571672131e-01 8.723248417941620403e+01 7.049798164456314575e-01 -1.790923470566012838e+02
4.098664307345412650e-01 1.080092705925257857e+00 -1.970317092131224912e-01 8.723248417764817475e+01 7.049798182089584975e-01 -1.790923470567082347e+02
4.098658648524179937e-01 1.080252479617097583e+00 -2.002711284535775016e-01 8.723248417941792354e+01 7.049798164661645883e-01 -1.790923470566038702e+02
4.098652989702321059e-01 1.080412253309644743e+00 -2.035105477094559523e-01 8.723248417764975216e+01 7.049798164446073878e-01 -1.790923470566224580e+02
4.098647330880377804e-01 1.080572027001282631e+00 -2.067499669499025527e-01 8.723248417941620403e+01 7.049798164454992300e-01 -1.790923470566039271e+02
4.098641672061001939e-01 1.080731800693429667e+00 -2.099893861980754728e-01 8.723248417941637456e+01 7.049798182306834526e-01 -1.790923470566863500e+02
4.098636013235709696e-01 1.080891574386272369e+00 -2.132288054539656086e-01 8.723248417764975216e+01 7.049798164447049764e-01 -1.790923470566204116e+02
4.098630354413894117e-01 1.081051348077610719e+00 -2.164682246944269750e-01 8.723248417941620403e+01 7.049798164456865246e-01 -1.790923470566001185e+02
4.098624695592066325e-01 1.081211121769755756e+00 -2.197076439426330352e-01 8.723248417941620403e+01 7.049798164457516947e-01 -1.790923470565987827e+02
4.098503550855926991e-01 1.081410292491581382e+00 -2.196940695881051953e-01 8.723248417941572086e+01 7.049798164457513616e-01 -1.790923470565988112e+02
4.098509209677754228e-01 1.081250518799436788e+00 -2.164546503398991351e-01 8.723248417941572086e+01 7.049798164456863026e-01 -1.790923470566001185e+02
4.098514868499703034e-01 1.081090745107295970e+00 -2.132152310917828364e-01 8.723248417941792354e+01 7.049798164663159117e-01 -1.790923470566008007e+02
4.098520527321548590e-01 1.080930971415858144e+00 -2.099758118513281591e-01 8.723248417764975216e+01 7.049798164447794724e-01 -1.790923470566189621e+02
4.098526186145475814e-01 1.080771197723108923e+00 -2.067363925953454307e-01 8.723248417941513821e+01 7.049798182097920529e-01 -1.790923470566909543e+02
4.098531844966181725e-01 1.080611424031470147e+00 -2.034969733549220061e-01 8.723248417764924056e+01 7.049798164446050563e-01 -1.790923470566224580e+02
4.098537503788040604e-01 1.080451650338923208e+00 -2.002575540990474967e-01 8.723248417941792354e+01 7.049798164661664757e-01 -1.790923470566038702e+02
4.098543162609272761e-01 1.080291876647083260e+00 -1.970181348585866021e-01 8.723248417764817475e+01 7.049798182089584975e-01 -1.790923470567082347e+02
4.098548821432875244e-01 1.080132102954735718e+00 -1.937787156026371804e-01 8.723248417941620403e+01 7.049798164456311245e-01 -1.790923470566012838e+02
4.098554480254857912e-01 1.079972329262699260e+00 -1.905392963584122412e-01 8.723248417853359626e+01 7.049798164555515223e-01 -1.790923470566098104e+02
4.098433335516837306e-01 1.080171499984521333e+00 -1.905257220038647781e-01 8.723248417853329784e+01 7.049798173376972121e-01 -1.790923470566533240e+02
4.098427676693973121e-01 1.080331273676555570e+00 -1.937651412480805857e-01 8.723248417941513821e+01 7.049798182099223931e-01 -1.790923470566883111e+02
4.098422017873895040e-01 1.080491047368911106e+00 -1.970045605040785797e-01 8.723248417764925478e+01 7.049798164446655635e-01 -1.790923470566212075e+02
4.098416359051910152e-01 1.080650821060749278e+00 -2.002439797445254022e-01 8.723248417941620403e+01 7.049798164455515215e-01 -1.790923470566028755e+02
4.098410700230293302e-01 1.080810594753299103e+00 -2.034833990004510373e-01 8.723248417764989426e+01 7.049798182295125004e-01 -1.790923470567104516e+02
4.098405041407099936e-01 1.080970368444932328e+00 -2.067228182408437365e-01 8.723248417941620403e+01 7.049798164454992300e-01 -1.790923470566039271e+02
4.098399382585408701e-01 1.081130142137683103e+00 -2.099622374967919924e-01 8.723248417764975216e+01 7.049798164447794724e-01 -1.790923470566189621e+02
4.098393723763563146e-01 1.081289915829121817e+00 -2.132016567372549964e-01 8.723248417941744037e+01 7.049798164663160227e-01 -1.790923470566008007e+02
4.098388064945767684e-01 1.081449689522073099e+00 -2.164410759930722183e-01 8.723248417764868634e+01 7.049798182089827003e-01 -1.790923470567077800e+02
4.098382406123940447e-01 1.081609463214218136e+00 -2.196804952412793610e-01 8.723248417764868634e+01 7.049798182090478704e-01 -1.790923470567064442e+02
4.098261261383565057e-01 1.081808633936037767e+00 -2.196669208867690903e-01 8.723248417764975216e+01 7.049798164447548254e-01 -1.790923470566194169e+02
4.098266920205393404e-01 1.081648860243892951e+00 -2.164275016385630857e-01 8.723248417764975216e+01 7.049798164446897664e-01 -1.790923470566207243e+02
4.098272579027424367e-01 1.081489086550947443e+00 -2.131880823827228266e-01 8.723248417941792354e+01 7.049798164663162447e-01 -1.790923470566008007e+02
4.098278237849269923e-01 1.081329312859508729e+00 -2.099486631422580185e-01 8.723248417764925478e+01 7.049798164447790283e-01 -1.790923470566189621e+02
4.098283896673195481e-01 1.081169539166760396e+00 -2.067092438862859483e-01 8.723248417941513821e+01 7.049798182097920529e-01 -1.790923470566909543e+02
4.098289555493917491e-01 1.081009765475124951e+00 -2.034698246459416549e-01 8.723248417765097429e+01 7.049798164652200105e-01 -1.790923470566234244e+02
4.098295214315771373e-01 1.080849991782574904e+00 -2.002304053899953695e-01 8.723248417941620403e+01 7.049798164455515215e-01 -1.790923470566028755e+02
4.098300873136991318e-01 1.080690218090733623e+00 -1.969909861495126036e-01 8.723248417764868634e+01 7.049798182089588305e-01 -1.790923470567082347e+02
4.098306531960576038e-01 1.080530444398391632e+00 -1.937515668936691249e-01 8.723248417941792354e+01 7.049798164662445243e-01 -1.790923470566022502e+02
4.098312190782571474e-01 1.080370670706247482e+00 -1.905121476454680884e-01 8.723248417941682931e+01 7.049798164560497904e-01 -1.790923470565994933e+02
4.127070928118709570e-01 1.080608605707880754e+00 -1.904997226729603366e-01 8.723248417853329784e+01 7.049798173376183863e-01 -1.790923470566549440e+02
4.127065269295982497e-01 1.080768379400123935e+00 -1.937391419249793467e-01 8.723248417765039164e+01 7.049798182296216353e-01 -1.790923470567082916e+02
4.127059610475877771e-01 1.080928153092067134e+00 -1.969785611654629454e-01 8.723248417941572086e+01 7.049798164457232730e-01 -1.790923470565994364e+02
4.127053951653937292e-01 1.081087926784517039e+00 -2.002179804214117564e-01 8.723248417764975216e+01 7.049798164446660076e-01 -1.790923470566212643e+02
4.127048292832274923e-01 1.081247700476251072e+00 -2.034573996617625724e-01 8.723248417941513821e+01 7.049798182099139554e-01 -1.790923470566883395e+02
4.127042634009148725e-01 1.081407474168904370e+00 -2.066968189178134130e-01 8.723248417765097429e+01 7.049798164652631982e-01 -1.790923470566226285e+02
4.127036975187776680e-01 1.081567247860441006e+00 -2.099362381581960091e-01 8.723248417941623245e+01 7.049798164461938965e-01 -1.790923470565898299e+02
4.127031316365617486e-01 1.081727021552584933e+00 -2.131756574064020970e-01 8.723248417941623245e+01 7.049798164458864758e-01 -1.790923470565961111e+02
4.127025657547848669e-01 1.081886795245534882e+00 -2.164150766622063848e-01 8.723248417764990847e+01 7.049798182297026816e-01 -1.790923470567066431e+02
4.127019998725971472e-01 1.082046568937674591e+00 -2.196544959103136629e-01 8.723248417764990847e+01 7.049798182297118965e-01 -1.790923470567064726e+02
4.098140116646426523e-01 1.082007804657861394e+00 -2.196533465322363377e-01 8.723248417764925478e+01 7.049798164447546034e-01 -1.790923470566194169e+02
4.098145775468253760e-01 1.081848030965716578e+00 -2.164139272840303607e-01 8.723248417764925478e+01 7.049798164446895443e-01 -1.790923470566207527e+02
4.098151434294518558e-01 1.081688257272777065e+00 -2.131745080281663707e-01 8.723248417941685773e+01 7.049798182306087346e-01 -1.790923470566878279e+02
4.098157093113130589e-01 1.081528483581333910e+00 -2.099350887877218796e-01 8.723248417764925478e+01 7.049798164447791393e-01 -1.790923470566189621e+02
4.098162751934821268e-01 1.081368709888583579e+00 -2.066956695317836989e-01 8.723248417941620403e+01 7.049798164454992300e-01 -1.790923470566039271e+02
4.098168410756812263e-01 1.081208936196443648e+00 -2.034562502836695930e-01 8.723248417941792354e+01 7.049798164662166577e-01 -1.790923470566028470e+02
4.098174069578865431e-01 1.081049162504703398e+00 -2.002168310431838849e-01 8.723248417764868634e+01 7.049798182088481413e-01 -1.790923470567105369e+02
4.098179728401618038e-01 1.080889388812256158e+00 -1.969774117872614694e-01 8.723248417941572086e+01 7.049798164456620997e-01 -1.790923470566006301e+02
4.098185387223468590e-01 1.080729615120321396e+00 -1.937379925468948605e-01 8.723248417765147167e+01 7.049798164652480992e-01 -1.790923470566228843e+02
4.098191046045456809e-01 1.080569841428074440e+00 -1.904985732948179245e-01 8.723248417853385206e+01 7.049798164555518554e-01 -1.790923470566098104e+02
4.069311163969304701e-01 1.080531077148259023e+00 -1.904974239127687485e-01 8.723248417941655930e+01 7.049798173381530697e-01 -1.790923470566438596e+02
4.069305505146453839e-01 1.080690850840403616e+00 -1.937368431610028141e-01 8.723248417941685773e+01 7.049798182305291316e-01 -1.790923470566895048e+02
4.069299846326369652e-01 1.080850624532748938e+00 -1.969762624168057419e-01 8.723248417764924056e+01 7.049798164446221538e-01 -1.790923470566221454e+02
4.069294187504429172e-01 1.081010398224588220e+00 -2.002156816572651099e-01 8.723248417941620403e+01 7.049798164455561844e-01 -1.790923470566027902e+02
4.069288528682633577e-01 1.081170171917137823e+00 -2.034551009132038457e-01 8.723248417765147167e+01 7.049798164652916199e-01 -1.790923470566220033e+02
4.069282869861899354e-01 1.081329945608778376e+00 -2.066945201536470600e-01 8.723248417941465505e+01 7.049798182098450106e-01 -1.790923470566897606e+02
4.069277211037919950e-01 1.081489719301521157e+00 -2.099339394095191547e-01 8.723248417764975216e+01 7.049798164447760307e-01 -1.790923470566190190e+02
4.069271552216090493e-01 1.081649492992960537e+00 -2.131733586499935940e-01 8.723248417941792354e+01 7.049798164663325650e-01 -1.790923470566005165e+02
4.069265893394053979e-01 1.081809266685905602e+00 -2.164127779058286072e-01 8.723248417764925478e+01 7.049798164446997584e-01 -1.790923470566205538e+02
4.069260234572247836e-01 1.081969040378050417e+00 -2.196521971540346119e-01 8.723248417764925478e+01 7.049798164447893534e-01 -1.790923470566187632e+02
4.126949783382591885e-01 1.080807776429706379e+00 -1.904861483184329407e-01 8.723248417853220360e+01 7.049798173273069679e-01 -1.790923470566544609e+02
4.126944124561640059e-01 1.080967550121957998e+00 -1.937255675705705227e-01 8.723248417764925478e+01 7.049798164447141913e-01 -1.790923470566202695e+02
4.126938465739729556e-01 1.081127323813897423e+00 -1.969649868110216473e-01 8.723248417941792354e+01 7.049798164663382272e-01 -1.790923470566004028e+02
4.126932806917797958e-01 1.081287097506342443e+00 -2.002044060668756176e-01 8.723248417764975216e+01 7.049798164446660076e-01 -1.790923470566212643e+02
4.126927148096133924e-01 1.081446871198076920e+00 -2.034438253072350100e-01 8.723248417941465505e+01 7.049798182099216159e-01 -1.790923470566883395e+02
4.126921489273009946e-01 1.081606644890729552e+00 -2.066832445632750537e-01 8.723248417765147167e+01 7.049798164652635313e-01 -1.790923470566226001e+02
4.126915830451637346e-01 1.081766418582266853e+00 -2.099226638036659764e-01 8.723248417941623245e+01 7.049798164461857919e-01 -1.790923470565898299e+02
4.126910171632644508e-01 1.081926192275115106e+00 -2.131620830594783134e-01 8.723248417764818896e+01 7.049798182091830956e-01 -1.790923470567037157e+02
4.126904512806575109e-01 1.082085965966453012e+00 -2.164015023000753490e-01 8.723248417941792354e+01 7.049798164664069500e-01 -1.790923470565990101e+02
4.126898853984697357e-01 1.082245739658592720e+00 -2.196409215481815447e-01 8.723248417941795196e+01 7.049798164664160538e-01 -1.790923470565988112e+02
4.098018971910348252e-01 1.082206975379685909e+00 -2.196397721776922884e-01 8.723248417765097429e+01 7.049798164653716670e-01 -1.790923470566204116e+02
4.098024630732175488e-01 1.082047201687545979e+00 -2.164003529295862038e-01 8.723248417765097429e+01 7.049798164653067190e-01 -1.790923470566217190e+02
4.098030289554108196e-01 1.081887427994597584e+00 -2.131609336736718652e-01 8.723248417941620403e+01 7.049798164457015126e-01 -1.790923470565998059e+02
4.098035948379290527e-01 1.081727654302456987e+00 -2.099215144254384935e-01 8.723248417941513821e+01 7.049798182100684985e-01 -1.790923470566853837e+02
4.098041607198648628e-01 1.081567880610913912e+00 -2.066820951849823451e-01 8.723248417764975216e+01 7.049798164445026938e-01 -1.790923470566245328e+02
4.098047266020672930e-01 1.081408106918269274e+00 -2.034426759291417808e-01 8.723248417941744037e+01 7.049798164662164357e-01 -1.790923470566028470e+02
4.098052924842491840e-01 1.081248333226529690e+00 -2.002032566886750853e-01 8.723248417764975216e+01 7.049798164445553184e-01 -1.790923470566235096e+02
4.098058583663711785e-01 1.081088559534077564e+00 -1.969638374327034314e-01 8.723248417941513821e+01 7.049798182099551447e-01 -1.790923470566876290e+02
4.098064242487329811e-01 1.080928785842146578e+00 -1.937244181923609143e-01 8.723248417765097429e+01 7.049798164652479882e-01 -1.790923470566228843e+02
4.098069901309317475e-01 1.080769012149899622e+00 -1.904849989402859489e-01 8.723248417853359626e+01 7.049798164555515223e-01 -1.790923470566098104e+02
4.069190019233188682e-01 1.080730247870087091e+00 -1.904838495621165029e-01 8.723248417853305625e+01 7.049798173376569110e-01 -1.790923470566541766e+02
4.069184360412113621e-01 1.080890021562334269e+00 -1.937232688141614645e-01 8.723248417765097429e+01 7.049798164652394394e-01 -1.790923470566231117e+02
4.069178701590230873e-01 1.081049795254269252e+00 -1.969626880545290171e-01 8.723248417941620403e+01 7.049798164456151373e-01 -1.790923470566015396e+02
4.069173042768288728e-01 1.081209568946718713e+00 -2.002021073104733595e-01 8.723248417764975216e+01 7.049798164445596482e-01 -1.790923470566234244e+02
4.069167383946759586e-01 1.081369342638462072e+00 -2.034415265510043647e-01 8.723248417941637456e+01 7.049798182305808680e-01 -1.790923470566884532e+02
4.069161725123527917e-01 1.081529116330596896e+00 -2.066809457990534393e-01 8.723248417941620403e+01 7.049798164455602922e-01 -1.790923470566026765e+02
4.069156066301781172e-01 1.081688890023346339e+00 -2.099203650549829880e-01 8.723248417764975216e+01 7.049798164447684812e-01 -1.790923470566190190e+02
4.069150407479950604e-01 1.081848663714786163e+00 -2.131597842954635891e-01 8.723248417941792354e+01 7.049798164663323430e-01 -1.790923470566005165e+02
4.069144748662145705e-01 1.082008437407740997e+00 -2.163992035513551959e-01 8.723248417764817475e+01 7.049798182089925813e-01 -1.790923470567076095e+02
4.069139089840339563e-01 1.082168211099885813e+00 -2.196386227995623386e-01 8.723248417764817475e+01 7.049798182090821763e-01 -1.790923470567057905e+02
4.126828638647335734e-01 1.081006947151536002e+00 -1.904725739639584192e-01 8.723248417853272940e+01 7.049798164451602789e-01 -1.790923470566109472e+02
4.126822979825485183e-01 1.081166720843578455e+00 -1.937119932082944918e-01 8.723248417941620403e+01 7.049798164457028449e-01 -1.790923470565996354e+02
4.126817321003590222e-01 1.081326494535723048e+00 -1.969514124564916424e-01 8.723248417941792354e+01 7.049798164663382272e-01 -1.790923470566004028e+02
4.126811662180892015e-01 1.081486268228160741e+00 -2.001908317122270686e-01 8.723248417764817475e+01 7.049798182089586085e-01 -1.790923470567082916e+02
4.126806003358761132e-01 1.081646041919906098e+00 -2.034302509528189140e-01 8.723248417941620403e+01 7.049798164456291261e-01 -1.790923470566013123e+02
4.126800344536870058e-01 1.081805815612554733e+00 -2.066696702087388871e-01 8.723248417765147167e+01 7.049798164652635313e-01 -1.790923470566226001e+02
4.126794685717730116e-01 1.081965589304090702e+00 -2.099090894490234227e-01 8.723248417941465505e+01 7.049798182104867195e-01 -1.790923470566769140e+02
4.126789026892272449e-01 1.082125362996938733e+00 -2.131485087050562499e-01 8.723248417764975216e+01 7.049798164448900506e-01 -1.790923470566166884e+02
4.126783368070435221e-01 1.082285136688278415e+00 -2.163879279455453442e-01 8.723248417941792354e+01 7.049798164663991784e-01 -1.790923470565990101e+02
4.126777709248558024e-01 1.082444910380418346e+00 -2.196273471936515398e-01 8.723248417941795196e+01 7.049798164664080602e-01 -1.790923470565988112e+02
4.097897827174308283e-01 1.082406146100607369e+00 -2.196261978154511185e-01 8.723248417941792354e+01 7.049798164663684252e-01 -1.790923470565998059e+02
4.097903485996136075e-01 1.082246372408467661e+00 -2.163867785673449229e-01 8.723248417941792354e+01 7.049798164663034772e-01 -1.790923470566010849e+02
4.097909144817901694e-01 1.082086598717127091e+00 -2.131473593268545519e-01 8.723248417764975216e+01 7.049798164447045323e-01 -1.790923470566204116e+02
4.097914803639918779e-01 1.081926825024279060e+00 -2.099079400709379650e-01 8.723248417941572086e+01 7.049798164457756755e-01 -1.790923470565983564e+02
4.097920462463766622e-01 1.081767051332744423e+00 -2.066685208305124866e-01 8.723248417765039164e+01 7.049798182294103599e-01 -1.790923470567125548e+02
4.097926121284531376e-01 1.081607277640095344e+00 -2.034291015746174380e-01 8.723248417941620403e+01 7.049798164456019256e-01 -1.790923470566018239e+02
4.097931780106353061e-01 1.081447503948354871e+00 -2.001896823341411391e-01 8.723248417764924056e+01 7.049798164445550963e-01 -1.790923470566235380e+02
4.097937438928339615e-01 1.081287730255905855e+00 -1.969502630782004604e-01 8.723248417941620403e+01 7.049798164456624328e-01 -1.790923470566006017e+02
4.097943097748422692e-01 1.081127956563966208e+00 -1.937108438377992681e-01 8.723248417764989426e+01 7.049798182295404780e-01 -1.790923470567099116e+02
4.097948756571294093e-01 1.080968182871721472e+00 -1.904714245857401511e-01 8.723248417853305625e+01 7.049798173376981003e-01 -1.790923470566533240e+02
4.069068874497048793e-01 1.080929418591912716e+00 -1.904702752075835004e-01 8.723248417853305625e+01 7.049798173376548016e-01 -1.790923470566541766e+02
4.069063215675974288e-01 1.081089192284159450e+00 -1.937096944596252979e-01 8.723248417765097429e+01 7.049798164652396615e-01 -1.790923470566231117e+02
4.069057556854092095e-01 1.081248965976094878e+00 -1.969491136999990122e-01 8.723248417941620403e+01 7.049798164456151373e-01 -1.790923470566015396e+02
4.069051898031380565e-01 1.081408739668545893e+00 -2.001885329560027238e-01 8.723248417764817475e+01 7.049798182088520271e-01 -1.790923470567104232e+02
4.069046239209389015e-01 1.081568513360282591e+00 -2.034279521964103832e-01 8.723248417941792354e+01 7.049798164662883782e-01 -1.790923470566013975e+02
4.069040580387355277e-01 1.081728287052926785e+00 -2.066673714522456740e-01 8.723248417764975216e+01 7.049798164445638671e-01 -1.790923470566233107e+02
4.069034921565708451e-01 1.081888060744468083e+00 -2.099067906927365168e-01 8.723248417941572086e+01 7.049798164457721228e-01 -1.790923470565984132e+02
4.069029262747042019e-01 1.082047834436620226e+00 -2.131462099409966449e-01 8.723248417941685773e+01 7.049798182306254990e-01 -1.790923470566875437e+02
4.069023603920775001e-01 1.082207608129554188e+00 -2.163856291967553303e-01 8.723248417764975216e+01 7.049798164446918758e-01 -1.790923470566205538e+02
4.069017945098969413e-01 1.082367381821699226e+00 -2.196250484449613349e-01 8.723248417764975216e+01 7.049798164447816928e-01 -1.790923470566187632e+02
